# .PCD v0.7 - Point Cloud Data file format
VERSION 0.7
FIELDS x y z
SIZE 4 4 4
TYPE F F F
COUNT 1 1 1
WIDTH 1618
HEIGHT 1
VIEWPOINT 0 0 0 1 0 0 0
POINTS 1618
DATA ascii
18.950657 15.291276 8.5571337
19.387997 15.226171 8.5571394
19.789865 15.214664 8.5571432
21.416868 15.215319 8.5571432
21.793604 15.208771 8.5571432
22.204992 15.231861 8.5571394
22.990492 15.206985 8.5571432
24.999588 15.204842 8.5571432
30.386108 15.228415 8.5571432
30.601898 15.269347 8.5571337
31.004292 15.261412 8.5571337
31.434753 15.28052 8.5571337
31.779575 15.376245 8.5571318
32.206387 15.409519 8.5571318
32.590218 15.405945 8.5571318
33.020245 15.426435 8.5571318
33.377213 15.472987 8.5571327
33.824501 15.474396 8.5571337
34.212109 15.454788 8.5571356
34.571857 15.42339 8.5571337
35.035198 15.458711 8.5571318
35.415257 15.371518 8.5571318
35.803471 15.408356 8.5571327
36.191948 15.334414 8.5571327
36.612961 15.345675 8.5571318
37.005516 15.41258 8.5571346
37.420589 15.427917 8.5571327
37.804806 15.407657 8.5571327
38.174675 15.342613 8.5571365
38.499916 15.341719 8.5571423
40.612675 15.45129 8.5571432
41.017712 15.528976 8.5571432
41.416775 15.566861 8.5571432
41.836891 15.576122 8.5571432
42.036079 15.577301 8.5571432
44.201801 15.402687 8.5571432
33.262062 15.629163 8.5571432
33.839611 15.617376 8.5571432
35.026142 15.60559 8.5571432
41.512753 15.605589 8.5571432
41.758305 15.623269 8.5571432
42.20013 15.686486 8.5571384
42.612282 15.763025 8.5571432
42.993423 15.759768 8.5571404
43.388222 15.772685 8.5571413
43.85622 15.783085 8.5571413
44.174549 15.713865 8.5571365
-0.13409936 15.068024 8.8742876
0.15992458 15.114143 8.8742819
0.61919844 15.136936 8.8742886
0.99214339 15.124088 8.8742819
1.3608869 15.125651 8.8742867
1.8398525 15.134847 8.8742905
2.1979544 15.139257 8.8742857
2.6023901 15.146998 8.8742895
2.9707553 15.146272 8.8742914
3.4211514 15.167247 8.8742847
3.8433912 15.147297 8.8742895
4.2341256 15.147616 8.8742895
4.6059809 15.161768 8.8742857
4.8160725 15.169405 8.8742857
5.4614749 15.173478 8.8742847
5.6472726 15.157182 8.8742857
12.101298 15.169405 8.8742857
13.095479 15.181629 8.8742857
13.460933 15.177866 8.8742847
13.687303 15.175516 8.8742857
14.287272 15.164315 8.8742838
14.478776 15.169405 8.8742857
15.377206 15.181629 8.8742857
-0.25192913 15.360636 8.8742905
0.15977906 15.219177 8.8742838
0.57425666 15.240499 8.8742905
1.0055077 15.266453 8.8742809
1.39264 15.266491 8.8742828
1.8071383 15.265802 8.8742828
2.1992285 15.264801 8.8742819
2.6008441 15.275264 8.87428
2.99804 15.280066 8.87428
3.3985999 15.278043 8.87428
3.8068411 15.294217 8.8742781
4.1888261 15.303521 8.8742771
4.5935049 15.322088 8.8742752
5.0126886 15.387725 8.8742743
5.4028015 15.330231 8.8742762
5.8201632 15.37523 8.87428
6.1648126 15.402117 8.87428
6.6183925 15.421157 8.8742819
7.0055237 15.441678 8.8742809
7.4099412 15.39207 8.8742771
7.7926946 15.382483 8.8742743
8.1830406 15.37015 8.8742762
8.5948086 15.365673 8.8742781
9.0000143 15.396425 8.8742771
9.3763666 15.448402 8.8742847
9.8099203 15.463365 8.8742809
10.235313 15.467817 8.874279
10.589002 15.493892 8.8742762
11.010307 15.454165 8.8742743
11.404973 15.450904 8.8742743
11.786077 15.488915 8.8742762
12.207776 15.427897 8.8742733
12.601703 15.457291 8.8742743
12.990552 15.419249 8.8742733
13.406661 15.409793 8.8742733
13.794728 15.410112 8.8742733
14.204906 15.395111 8.8742733
14.596203 15.419072 8.8742733
15.022049 15.445511 8.8742743
15.399151 15.407339 8.8742733
15.791968 15.43797 8.8742743
16.162924 15.52815 8.8742828
16.640305 15.597229 8.8742847
16.975157 15.597229 8.8742847
17.447426 15.564444 8.8742895
17.782518 15.540861 8.8742867
18.226164 15.472818 8.8742914
18.622318 15.435505 8.8742809
18.992971 15.418429 8.8742905
19.406847 15.522303 8.8742847
19.802872 15.538353 8.8742809
20.236631 15.480529 8.8742762
20.611982 15.438967 8.8742743
20.988134 15.435111 8.8742733
21.390938 15.49748 8.8742809
21.79298 15.479017 8.8742838
22.199646 15.381767 8.8742733
22.582851 15.332651 8.8742771
22.992901 15.288906 8.8742838
23.407555 15.358878 8.8742771
23.79908 15.375143 8.8742752
24.201462 15.34201 8.8742762
24.608454 15.333109 8.8742771
26.171555 15.32909 8.8742886
26.620005 15.433436 8.8742895
26.976398 15.49474 8.8742809
27.413868 15.489318 8.8742828
27.766768 15.464787 8.8742819
28.20727 15.386089 8.8742752
28.590538 15.367505 8.8742762
31.021227 15.426097 8.8742867
31.37644 15.494311 8.8742781
31.793615 15.454275 8.8742752
32.206062 15.528856 8.87428
32.619377 15.547056 8.8742847
32.909569 15.5491 8.8742857
10.732263 15.640882 8.8742847
13.799898 15.689614 8.8742809
14.178647 15.6709 8.8742857
14.515802 15.662661 8.8742867
15.059393 15.632958 8.8742847
15.206077 15.6339 8.8742857
16.221741 15.628343 8.8742847
16.579187 15.632267 8.8742847
16.997808 15.634291 8.8742857
17.405546 15.635425 8.8742857
17.676668 15.637494 8.8742847
19.510288 15.644594 8.8742847
19.841057 15.654279 8.8742905
20.163864 15.669428 8.8742886
20.5172 15.633897 8.8742847
20.975584 15.621675 8.8742857
31.170012 15.621676 8.8742857
31.486382 15.657627 8.8742847
31.781796 15.682658 8.8742838
32.203545 15.682791 8.8742819
32.600945 15.684095 8.8742819
32.990826 15.742938 8.8742857
33.371159 15.835365 8.8742838
33.812519 15.842813 8.8742838
34.235199 15.826565 8.8742886
34.584076 15.894288 8.8742828
35.000156 15.909283 8.8742838
35.38232 15.878028 8.8742771
35.766056 15.875006 8.8742867
36.210766 15.870222 8.8742886
36.566803 15.835287 8.8742895
37.041721 15.821674 8.8742838
37.341248 15.793136 8.8742857
37.82423 15.748526 8.8742905
38.19659 15.813919 8.8742828
38.596012 15.887048 8.8742895
38.982677 15.871643 8.8742886
39.364925 15.854569 8.8742847
39.787601 15.870224 8.8742847
42.07896 15.781692 8.8742838
43.381321 15.621676 8.8742857
44.395874 15.988382 8.8742857
44.738136 15.956746 8.8742847
45.113644 15.943398 8.8742838
45.397873 15.872565 8.8742771
45.765942 15.799556 8.8742752
38.626366 16.012829 8.8742857
42.309727 16.102468 8.8742857
42.586792 16.110619 8.8742857
43.019096 16.117779 8.8742886
43.389236 16.111574 8.8742905
44.604782 16.162424 8.8742743
45.007618 16.176228 8.8742743
45.389614 16.18503 8.8742733
45.765114 16.128464 8.8742781
-0.19566442 15.473516 9.2270584
0.22756556 15.437691 9.2157068
0.59695268 15.45175 9.2157059
0.97214901 15.465522 9.2157068
1.4128848 15.48808 9.2157078
1.8057412 15.479848 9.2157078
2.1981626 15.491644 9.2157078
2.6022334 15.486464 9.2157078
3.0023656 15.490505 9.2157078
3.3902266 15.544265 9.2157183
3.7901499 15.536591 9.2157145
4.2019801 15.536907 9.2157145
4.6092672 15.542522 9.2157164
4.98457 15.543092 9.2157183
5.3922544 15.550534 9.2157183
5.7933488 15.563175 9.2157202
6.173429 15.572779 9.2157154
6.5977407 15.575825 9.2157145
6.9786153 15.583532 9.2157145
7.3635969 15.557901 9.2157192
7.8333163 15.57409 9.2157164
8.2010841 15.575755 9.2157154
8.5315847 15.575986 9.2157145
8.8348999 15.588013 9.2157145
9.7770643 15.55416 9.2157145
11.466752 15.562625 9.2157145
11.877408 15.573313 9.2157145
12.204533 15.574163 9.2157164
12.610735 15.574163 9.2157164
12.986628 15.574471 9.2157154
13.391981 15.575317 9.2157164
13.714405 15.579549 9.2157145
14.013979 15.588013 9.2157145
14.750221 15.575319 9.2157145
14.961784 15.579549 9.2157145
15.219893 15.588013 9.2157145
20.373585 15.588013 9.2157145
-0.42244786 15.960608 9.5842857
-0.23361486 15.83228 9.4524803
0.20302835 15.787206 9.5059233
0.59878224 15.75621 9.4795113
1.0189648 15.79057 9.5399475
1.4123864 15.79683 9.5208874
1.7731839 15.791447 9.4757586
2.1899199 15.804256 9.5086613
2.5986369 15.807099 9.4898119
3.0038416 15.812555 9.4730043
3.4013052 15.795637 9.4118719
3.7954993 15.795428 9.3999844
4.1926842 15.773842 9.3651295
4.6143136 15.776028 9.3588753
5.021287 15.783168 9.3370886
5.3937416 15.75996 9.2943602
5.8403287 15.750814 9.2779665
6.2019162 15.747346 9.2279234
6.6137791 15.790009 9.2421474
6.9968977 15.79952 9.2737608
7.3924193 15.801972 9.2716494
7.7982392 15.762031 9.2706861
8.1907444 15.733383 9.2407818
8.595211 15.735614 9.2157078
8.9769058 15.776899 9.2157125
9.4452486 15.796327 9.2157097
9.8114138 15.817914 9.3451509
10.199059 15.831507 9.3741426
10.591793 15.827286 9.3353195
11.002866 15.823131 9.2984896
11.387674 15.77474 9.2437468
11.794864 15.744761 9.2157059
12.201944 15.778505 9.215704
12.580684 15.742053 9.2157068
12.998171 15.75174 9.2157059
13.377651 15.734473 9.2157068
13.776701 15.712708 9.2157087
14.215222 15.685867 9.2157116
14.58346 15.704012 9.2157106
15.026951 15.691603 9.2157106
15.398869 15.795834 9.2157078
15.79851 15.739659 9.2157097
16.169872 15.756816 9.2157154
16.598949 15.862715 9.2157106
16.920698 15.917006 9.2157154
17.407196 15.960103 9.2157164
17.814791 15.93916 9.2157135
18.175188 15.935991 9.2157154
18.59063 15.968292 9.2157202
19.00832 15.947333 9.2157183
19.405386 15.889576 9.2157173
19.822855 15.925616 9.2157211
20.228291 15.836374 9.2157049
20.597343 15.818408 9.2276525
21.000973 15.779001 9.2157049
21.379772 15.744959 9.2157068
21.811394 15.747766 9.2300673
22.194042 15.817836 9.2233591
22.622036 15.831974 9.231801
22.973186 15.740351 9.2157087
23.396902 15.739399 9.2533159
23.805798 15.765464 9.2970467
24.196831 15.78404 9.2771339
24.606247 15.76974 9.2198076
24.993835 15.759087 9.2157135
25.398577 15.749514 9.2157164
25.806009 15.745217 9.2157154
26.140354 15.755434 9.2157183
26.607265 15.791111 9.2157145
26.99625 15.812726 9.2157202
27.407589 15.891364 9.2157183
27.813822 15.962207 9.2157145
28.170128 15.987446 9.2157145
28.618647 15.973905 9.2157145
29.001749 15.936185 9.2157192
29.381966 15.833427 9.2157145
29.776531 15.819673 9.2157145
32.33073 15.898794 9.2157154
33.0215 15.892175 9.2157211
33.343967 15.906938 9.2157125
33.638577 15.903559 9.3078566
43.864296 15.971206 9.2157164
-0.4224478 16.188555 9.5842876
0.051416349 16.044682 9.5842876
1.1705326 16.035416 9.5842857
1.2435808 16.034536 9.5842867
1.7029929 16.000212 9.5842857
2.2046497 16.000212 9.5842857
2.4554782 16.000212 9.5842857
3.1155529 16.000212 9.5842857
3.4646003 16.044569 9.5842886
3.7892418 16.045177 9.5842886
4.1950941 16.04365 9.5842886
4.5965204 16.04661 9.5842886
4.9809451 16.044209 9.5842886
5.3941627 16.055889 9.5842886
5.8191552 16.060968 9.5842886
6.2015219 16.081326 9.5842886
6.6092906 16.093147 9.5842886
6.9958496 16.086493 9.5842867
7.3751531 16.087658 9.5842876
7.8012037 16.081186 9.5842886
8.1805267 16.092623 9.5842886
8.601181 16.100611 9.5842886
9.006958 16.148554 9.5842886
9.408823 16.185696 9.5842695
9.7874088 16.154427 9.5842628
10.186396 16.109129 9.5842791
10.591974 16.137772 9.5842638
11.01127 16.119982 9.5842714
11.379478 16.136711 9.584281
11.786444 16.140451 9.5842886
12.199317 16.121693 9.5669031
12.583242 16.101742 9.5653868
12.999387 16.09577 9.5842886
13.388766 16.10037 9.5750751
13.820765 16.124063 9.5842886
14.225712 16.12159 9.5842886
14.591569 16.146738 9.5842886
15.003659 16.167006 9.5842886
15.371457 16.148439 9.5722046
15.795049 16.179836 9.5842886
16.189676 16.208998 9.5842886
16.624481 16.177101 9.5409279
17.018173 16.182674 9.4412136
17.398611 16.195683 9.4282837
17.801201 16.201696 9.412466
18.189342 16.223209 9.457839
18.58913 16.243387 9.490366
19.018677 16.274035 9.5565643
19.422398 16.299076 9.5842829
19.813156 16.268545 9.5818462
20.208054 16.214346 9.5211287
20.597887 16.195765 9.5305347
20.950001 16.191694 9.5539455
21.413837 16.130423 9.5842781
21.802324 16.127428 9.5842819
22.203907 16.100933 9.5658455
22.604601 16.112284 9.5791893
23.000675 16.115482 9.5817642
23.39197 16.141962 9.5842667
23.776285 16.108778 9.5842772
24.176107 16.060665 9.5842886
24.629148 16.167423 9.5842886
25.024397 16.173244 9.5842886
25.401827 16.21183 9.5842762
25.789953 16.203222 9.5842829
26.188463 16.258007 9.5842886
26.599745 16.255568 9.5842886
27.004297 16.264242 9.5842886
27.431284 16.309391 9.5842886
27.801456 16.351068 9.5842886
28.211258 16.268265 9.4824476
28.588133 16.339819 9.5670128
28.983072 16.358732 9.5842886
29.414461 16.365292 9.5842886
29.751772 16.375359 9.5842886
30.257828 16.365629 9.5842886
30.614267 16.335829 9.5842886
30.951418 16.309641 9.5842886
31.411325 16.250185 9.5842886
32.301971 16.038643 9.2157145
32.670582 16.064856 9.2157145
33.084324 16.182507 9.2157145
33.393265 16.103064 9.3122492
33.772896 16.096859 9.2585754
34.267067 16.158972 9.2277317
34.584457 16.247446 9.2560434
34.916321 16.238546 9.218915
35.415764 16.364149 9.2157145
35.88446 16.330111 9.2157145
36.185238 16.310816 9.2157173
36.628727 16.270798 9.2157116
36.987827 16.322945 9.2157145
37.410595 16.323927 9.2157145
37.79443 16.330809 9.2157192
38.140701 16.293226 9.2157145
38.568539 16.156139 9.3999996
39.110397 16.274483 9.2617855
39.405117 16.268223 9.2157154
39.703457 16.334127 9.2157145
43.835175 16.193117 9.2157049
44.199879 16.197296 9.2157049
44.593437 16.197289 9.2157125
44.998783 16.197077 9.2157106
45.440739 16.198616 9.3426037
45.804337 16.197779 9.4059601
46.198891 16.197756 9.4000244
17.380369 16.438265 9.5842886
18.590839 16.46114 9.5842886
19.047197 16.477827 9.5842886
19.401398 16.487764 9.5842886
19.786402 16.473579 9.5842886
20.193008 16.447556 9.5842886
20.592545 16.464727 9.5842886
20.839506 16.449064 9.5842848
27.960768 16.422661 9.5842857
28.32321 16.434664 9.5842867
28.643894 16.477983 9.5842886
28.988375 16.498169 9.5842886
29.399323 16.51866 9.5842772
29.803801 16.50433 9.5842886
30.153173 16.469707 9.5842886
30.603703 16.436745 9.5842886
30.993338 16.435238 9.5842876
31.24794 16.431463 9.5842857
33.516071 16.527151 9.5842886
33.775082 16.506582 9.5842886
34.129707 16.495052 9.5842886
34.662266 16.454861 9.4180708
34.963451 16.485811 9.4151077
35.429455 16.586063 9.5145597
35.831062 16.578888 9.5355453
36.176407 16.549225 9.3795223
36.510803 16.560678 9.3658743
37.018497 16.410355 9.2157145
37.440163 16.599169 9.4111032
37.777618 16.639128 9.4522619
38.083187 16.670761 9.478981
39.851822 16.412266 9.2157145
40.193172 16.433064 9.2157145
40.57407 16.430426 9.2157145
40.958733 16.446962 9.2157145
41.204144 16.451193 9.2157145
42.712498 16.488665 9.5842876
43.0844 16.647083 9.5842886
43.326077 16.742559 9.5842886
43.864075 16.530401 9.2157087
44.58952 16.550371 9.2157049
44.997822 16.538839 9.2157049
45.430157 16.547993 9.2967186
45.790779 16.537203 9.3269434
46.181286 16.500126 9.3176813
46.602413 16.493759 9.2716894
46.9589 16.450552 9.2157192
47.281555 16.427761 9.2157145
-0.42626524 16.363085 9.9828568
-0.18999043 16.236908 9.9828701
0.18355681 16.235178 9.9828739
0.60967898 16.215837 9.9828606
1.0098723 16.222429 9.9828606
1.4112345 16.2279 9.9828501
1.7982721 16.236771 9.9828558
2.1954036 16.274256 9.9828501
2.6013308 16.281633 9.982852
2.9933934 16.284578 9.9828606
3.3875506 16.297445 9.9828529
3.8059123 16.326668 9.982851
4.1942439 16.32424 9.982851
4.6074109 16.334387 9.982851
5.007504 16.332479 9.982851
5.3711195 16.335138 9.982851
5.7812214 16.369965 9.982852
6.1990156 16.344419 9.982851
6.612268 16.359072 9.982851
6.9614654 16.360111 9.982852
7.3800859 16.372908 9.982852
7.83778 16.390585 9.9828568
8.2640448 16.390583 9.9828568
8.4153004 16.390585 9.9828568
9.1119909 16.36125 9.9828548
9.3640842 16.376837 9.9828568
9.8467264 16.35552 9.982851
10.202407 16.345209 9.982851
10.608504 16.3377 9.982851
11.003928 16.337549 9.982851
11.422258 16.349878 9.982851
11.699167 16.350582 9.9828529
12.155435 16.390585 9.9828568
12.430444 16.390585 9.9828568
19.195686 16.390585 9.9828568
19.324024 16.390585 9.9828568
19.830248 16.376328 9.9828529
20.198051 16.375416 9.982852
-0.43772402 16.587677 9.9828529
-0.31501126 16.548094 9.9828568
0.23375838 16.427254 9.9828568
1.1550412 16.418087 9.9828568
3.0342751 16.427256 9.9828539
3.3963714 16.431837 9.982852
3.8041265 16.455107 9.982851
4.242609 16.480547 9.982851
4.5902452 16.489107 9.9828501
5.00387 16.481932 9.982851
5.4206758 16.488657 9.982851
5.8136606 16.509848 9.9828558
6.2163105 16.506855 9.9828501
6.6006045 16.541187 9.9828691
6.9780397 16.511269 9.982851
7.3924985 16.490942 9.9828501
7.7939696 16.50058 9.9828501
8.1987944 16.505836 9.9828548
8.6024055 16.576704 9.9828558
9.0074348 16.563679 9.9828672
9.4102125 16.58308 9.9828711
9.7969522 16.5532 9.9828691
10.085126 16.46879 9.982852
11.056771 16.454529 9.982851
11.443848 16.474558 9.982851
11.826703 16.535137 9.9828625
12.195708 16.55896 9.9828711
12.589911 16.578102 9.9828691
12.973834 16.57597 9.9828558
13.410548 16.588947 9.9828539
13.764645 16.613831 9.982851
14.187071 16.702551 9.982852
14.603022 16.706846 9.982852
14.998796 16.689508 9.9828529
15.411551 16.722435 9.982851
15.806763 16.713728 9.982851
16.198078 16.7206 9.982851
16.612286 16.712561 9.982851
17.00103 16.723707 9.982851
17.399225 16.718981 9.982851
17.789494 16.725853 9.982851
18.223335 16.655575 9.9828663
18.60737 16.62899 9.982873
19.008772 16.617216 9.9828777
19.401945 16.596844 9.9828787
19.799637 16.593639 9.9828806
20.199469 16.596825 9.9828787
20.593449 16.591032 9.9828796
20.990725 16.592306 9.9828749
21.368267 16.574591 9.9828663
21.808279 16.586739 9.9828653
22.179825 16.561026 9.9828682
22.599136 16.57238 9.9828653
22.986893 16.556383 9.982851
23.404604 16.584366 9.982851
23.814831 16.58666 9.982851
24.200863 16.590822 9.982851
24.597382 16.540096 9.982851
25.003897 16.559988 9.982851
25.433142 16.655642 9.982851
25.793276 16.726412 9.982851
26.217936 16.696096 9.982851
26.58577 16.695532 9.982851
27.028702 16.710325 9.982851
27.389832 16.715248 9.982851
27.808558 16.719147 9.982851
28.22377 16.700863 9.982851
28.580236 16.704935 9.9828501
28.997549 16.716129 9.982851
29.400291 16.716072 9.982851
29.801483 16.723095 9.982851
30.191719 16.712555 9.982851
30.578545 16.733833 9.982851
30.99544 16.760017 9.982852
31.430948 16.718315 9.982851
31.805387 16.707668 9.982851
32.183544 16.723886 9.982851
32.573936 16.723547 9.982851
34.909748 16.753599 9.9828568
35.558769 16.748098 9.9828568
35.627525 16.7756 9.9828568
40.60062 16.743517 9.9828568
16.616093 16.867271 9.9828548
17.861889 16.803101 9.9828568
18.300846 16.817907 9.9828558
18.601835 16.828022 9.982852
18.99419 16.841705 9.982851
19.399611 16.843576 9.982851
19.76663 16.840765 9.982851
20.16958 16.846739 9.982851
20.578234 16.834349 9.9828529
20.873245 16.803101 9.9828568
27.136137 16.826937 9.9828548
27.40473 16.830601 9.982851
27.800295 16.829321 9.982851
28.223866 16.853193 9.982851
28.587278 16.863943 9.982851
28.999781 16.885605 9.9828501
29.398554 16.885607 9.982852
29.79718 16.88475 9.9828501
30.200155 16.888653 9.9828539
30.590593 16.897854 9.9828548
31.010185 16.917336 9.9828653
31.399963 16.922335 9.9828672
31.804504 16.909563 9.9828539
32.218578 16.888357 9.982851
32.56258 16.881378 9.982851
34.927822 16.999535 9.982852
35.471367 17.041183 9.982851
35.735996 17.03686 9.982852
36.231731 17.009357 9.982851
36.596134 17.115528 9.9828501
37.001549 17.13147 9.982851
37.407223 17.118383 9.982851
37.88718 17.131804 9.9828539
38.138359 17.167488 9.9828539
41.897751 16.946718 9.982852
42.224358 17.021038 9.9828644
42.58646 17.051443 9.982872
42.993279 17.081041 9.9828606
43.390961 17.084127 9.9828625
43.766632 17.115118 9.982851
44.182697 17.172939 9.982852
44.667709 17.178946 9.9828568
44.826603 17.188114 9.9828568
-0.43285191 16.66958 10.417144
-0.18106666 16.583214 10.417126
0.17827146 16.607061 10.417123
0.59463179 16.634037 10.417124
0.98539138 16.629257 10.417123
1.383804 16.661781 10.417125
1.7947422 16.667391 10.417126
2.195348 16.673162 10.417126
2.5849516 16.679485 10.417127
2.9957435 16.68935 10.417128
3.3980284 16.689354 10.417128
3.8019905 16.684652 10.417129
4.1635089 16.703577 10.417131
4.5737395 16.750738 10.417144
5.0129762 16.778898 10.417144
5.5085273 16.755163 10.417144
5.7820244 16.766186 10.417144
6.2319198 16.775328 10.417144
6.5716953 16.773607 10.417144
6.8668685 16.77566 10.417144
8.3796301 16.787958 10.417143
8.6584053 16.731735 10.417144
8.9982176 16.728172 10.417134
9.3956451 16.707355 10.41713
9.7874641 16.728491 10.417135
10.216733 16.738094 10.417138
10.589328 16.737507 10.417138
11.00418 16.74365 10.41714
11.333163 16.752375 10.417144
11.710574 16.761312 10.417144
12.178445 16.787958 10.417144
12.606973 16.78796 10.417144
12.922012 16.787958 10.417144
13.487761 16.782221 10.417144
13.732792 16.774715 10.417144
14.055967 16.782219 10.417143
-0.43865967 16.963215 10.417144
-0.315671 16.945793 10.417143
0.60838413 16.839611 10.417143
1.1478945 16.816654 10.417143
1.4061708 16.833048 10.417144
1.8418491 16.819262 10.417144
2.2119045 16.845345 10.417144
2.5885022 16.843914 10.417144
2.9971864 16.840282 10.417144
3.4061038 16.846714 10.417144
3.8289981 16.899588 10.417132
4.2130833 16.879852 10.417134
4.6285214 16.896139 10.417131
5.016161 16.89237 10.417132
5.3926244 16.889631 10.417132
5.8177385 16.917343 10.417128
6.1971831 16.928301 10.417127
6.6111565 16.910513 10.41713
6.9749231 16.918856 10.41713
7.3962069 16.959209 10.41713
7.7992101 16.970284 10.417129
8.1994638 16.993139 10.417126
8.591547 16.949114 10.417125
8.998847 16.994211 10.417122
9.3787556 16.964676 10.417124
9.8092489 16.979919 10.417123
10.189282 16.925308 10.417127
10.60619 16.902142 10.41713
11.008061 16.898108 10.41713
11.407687 16.894363 10.41713
11.813932 16.911564 10.417129
12.232727 16.934782 10.417127
12.612774 16.959385 10.417124
13.00736 16.975971 10.417124
13.385862 16.973717 10.417123
13.792156 17.008152 10.417123
14.160409 17.034721 10.417126
14.594047 17.101337 10.417129
14.90747 17.097134 10.417142
15.2383 17.074932 10.417143
17.075581 17.132322 10.417144
17.412174 17.038212 10.417124
17.800613 17.015465 10.417122
18.193342 17.08494 10.417128
18.612556 17.108259 10.41713
19.047256 17.054457 10.417126
19.403542 17.000172 10.417123
19.780354 16.988008 10.417123
20.151176 16.993345 10.417129
20.595011 16.997374 10.417134
20.993462 16.981195 10.417133
21.39854 16.987717 10.417133
21.812635 17.02051 10.417131
22.172682 17.084702 10.417144
22.61096 17.119003 10.41714
22.995064 17.089937 10.417144
23.40531 17.105583 10.417144
23.780132 17.117355 10.417144
24.203016 17.114767 10.417131
24.483156 17.149546 10.417144
25.126932 17.165808 10.417144
25.411514 17.161022 10.417144
25.7792 17.165508 10.417144
26.10264 17.175371 10.417144
27.979929 17.132326 10.417143
28.20244 17.13191 10.417135
28.616405 17.061871 10.417125
29.005026 17.044924 10.417124
29.399509 17.030771 10.417123
29.791769 17.051306 10.417124
30.18667 17.0986 10.41713
30.601448 17.115192 10.417133
31.000088 17.10931 10.41713
31.392179 17.15419 10.417144
31.769287 17.174065 10.417144
32.671951 17.18972 10.417143
34.063766 17.060583 10.417143
34.953388 17.18972 10.417143
35.408447 17.070833 10.417144
37.536152 17.18972 10.417143
38.727089 17.18972 10.417143
13.372972 17.275812 10.417143
13.765766 17.265055 10.417144
14.317593 17.237549 10.417144
14.614232 17.285511 10.417135
15.807272 17.317898 10.417133
17.016153 17.307266 10.417132
17.403769 17.295746 10.417131
17.801277 17.293629 10.417131
18.208475 17.290161 10.417131
18.607693 17.297499 10.41713
18.918736 17.255726 10.417144
22.54752 17.261463 10.417144
23.916382 17.235638 10.417143
24.209642 17.227983 10.417144
24.613276 17.227478 10.417144
25.00736 17.230379 10.417144
25.320639 17.23181 10.417144
25.928068 17.218418 10.417143
26.23144 17.240967 10.417144
26.637045 17.314079 10.417144
26.996227 17.316858 10.417132
27.383179 17.287603 10.417134
27.802656 17.296648 10.417138
28.188635 17.285501 10.417133
28.610569 17.291199 10.417132
28.9963 17.290506 10.417131
29.379227 17.282274 10.417135
29.833132 17.284712 10.417135
30.205248 17.285616 10.417132
30.59901 17.287792 10.417132
31.010567 17.296116 10.41713
31.402565 17.281939 10.417133
31.814852 17.303226 10.41713
32.222706 17.341829 10.417128
32.584866 17.319286 10.417129
32.964333 17.28899 10.417138
33.405525 17.312878 10.417144
33.785553 17.3405 10.417139
34.054939 17.32217 10.417144
35.014885 17.284014 10.417144
35.323849 17.270596 10.417144
36.378693 17.581919 10.417143
36.594578 17.524683 10.417139
37.008839 17.562788 10.417144
37.427097 17.550161 10.417144
37.840858 17.519997 10.417141
38.21413 17.535889 10.417144
38.643578 17.499493 10.417133
38.984386 17.511675 10.417134
39.410694 17.515301 10.417132
39.788639 17.488016 10.417127
40.178001 17.474768 10.417127
40.592194 17.459379 10.417137
40.979832 17.382402 10.417144
41.485279 17.423006 10.417144
41.750492 17.472063 10.417138
42.198402 17.521887 10.417132
42.589664 17.540094 10.417138
42.986748 17.542215 10.417139
43.321205 17.574604 10.417144
43.677387 17.591484 10.417143
37.84502 17.672291 10.417144
-0.46585062 16.991705 10.891426
0.19711192 17.016607 10.891443
0.5803262 17.058987 10.891434
0.99078929 17.095322 10.891422
1.4031087 17.092617 10.891428
1.7984363 17.091135 10.891424
2.1855497 17.096561 10.891421
2.5900357 17.100428 10.891424
2.9925513 17.104286 10.891422
3.3822298 17.108328 10.891422
3.7902043 17.133133 10.891423
4.2084212 17.136189 10.891423
4.5652657 17.150919 10.891424
4.8231325 17.184753 10.891429
6.5708623 17.192255 10.891429
7.5343223 17.175589 10.891428
7.7382035 17.129436 10.891427
8.2027426 17.183924 10.89143
8.6164246 17.179903 10.891429
-0.49435058 17.409426 10.89143
-0.27228576 17.341526 10.891425
0.32254231 17.244764 10.891429
0.54007089 17.247261 10.891427
1.4251872 17.244259 10.891428
1.8018581 17.251451 10.891426
2.1902874 17.252266 10.891425
2.602484 17.253691 10.891425
2.9907496 17.272621 10.891424
3.3876674 17.270046 10.891424
3.7932849 17.273411 10.891423
4.2037096 17.294903 10.891424
4.5966039 17.338686 10.891424
5.0006557 17.394341 10.891433
5.4082093 17.404613 10.891432
5.7810607 17.386518 10.891424
6.2017622 17.394003 10.891432
6.5986171 17.367779 10.891434
6.9969196 17.377567 10.891436
7.4055176 17.406286 10.891446
7.7992148 17.405365 10.891446
8.1910725 17.402273 10.891447
8.5935011 17.400099 10.891448
8.9776278 17.338644 10.891428
9.3895454 17.310257 10.891422
9.7922983 17.296309 10.891422
10.209249 17.314579 10.891422
10.587231 17.324755 10.891425
11.002327 17.316986 10.891426
11.400054 17.327568 10.891427
11.770066 17.368879 10.891422
12.194584 17.457815 10.891423
12.600153 17.484795 10.891423
13.016042 17.433624 10.891422
13.398532 17.405592 10.891437
13.798293 17.417284 10.891437
14.201136 17.407467 10.89143
14.597263 17.412989 10.891437
14.983407 17.447281 10.891433
15.40202 17.493671 10.891422
15.800495 17.527563 10.891424
16.202126 17.5508 10.891425
16.483902 17.539261 10.891431
18.260269 17.527409 10.891424
18.615356 17.501461 10.891422
18.989527 17.503414 10.891422
19.390497 17.507105 10.891422
19.797859 17.530716 10.891424
20.180372 17.505257 10.891425
20.5977 17.452284 10.891428
21.003868 17.502296 10.891424
21.401604 17.528507 10.891424
21.799555 17.47352 10.891432
22.201292 17.468781 10.89143
22.579599 17.475954 10.891425
23.015354 17.507481 10.891422
23.280483 17.486296 10.891426
25.093292 17.582306 10.891429
27.036882 17.525633 10.891428
27.35759 17.528301 10.891429
27.84746 17.510866 10.891423
28.197521 17.518326 10.891423
28.604065 17.52136 10.891423
28.996609 17.50876 10.891422
29.397606 17.512701 10.891422
29.782766 17.51458 10.891423
30.18396 17.519728 10.891423
30.607906 17.534523 10.891424
30.994068 17.531946 10.891424
31.382353 17.539942 10.891424
31.800838 17.582306 10.891428
32.194225 17.582306 10.891428
32.637619 17.573971 10.89143
32.946465 17.57159 10.891428
33.274368 17.572306 10.891429
7.54599 17.61231 10.891429
7.8245978 17.616594 10.891428
8.2030764 17.618311 10.891429
8.5686235 17.617311 10.891427
10.249345 17.708324 10.891429
14.356885 17.707323 10.891427
14.536908 17.678318 10.891428
15.015303 17.682739 10.891422
15.387498 17.68218 10.891422
15.814152 17.779507 10.891445
16.202122 17.792334 10.891447
16.575096 17.823006 10.891439
17.763889 17.808702 10.891422
18.160715 17.627312 10.89143
18.75246 17.696321 10.891429
19.026852 17.685865 10.891423
19.39839 17.69322 10.891422
19.772593 17.69129 10.891423
20.114639 17.648315 10.891429
21.117771 17.66065 10.89143
21.368261 17.666319 10.891424
21.806004 17.636312 10.891426
22.209772 17.638887 10.891426
22.593798 17.643148 10.891426
23.024849 17.680771 10.891423
23.403069 17.732925 10.891424
23.790298 17.726675 10.891422
24.204052 17.726456 10.891421
24.60891 17.727589 10.891421
24.992157 17.725037 10.891428
25.385748 17.746847 10.891423
25.819807 17.860245 10.891421
26.179028 17.838514 10.891426
26.602753 17.810112 10.891422
27.015392 17.8253 10.891422
27.413395 17.8517 10.891421
27.814209 17.80621 10.891445
28.197624 17.79455 10.891446
28.594479 17.793421 10.891446
29.002901 17.795914 10.891447
29.387945 17.733128 10.891431
29.750727 17.686417 10.891423
30.211962 17.635313 10.891428
30.606516 17.612309 10.891427
31.024069 17.622309 10.89143
31.427967 17.676931 10.891423
31.808043 17.706846 10.891421
32.17955 17.709656 10.891422
32.619373 17.723219 10.891431
33.003223 17.757034 10.891439
33.400715 17.782921 10.891444
33.770699 17.82128 10.89144
34.207893 17.82984 10.891438
34.574257 17.827772 10.891427
35.009651 17.863283 10.891422
35.406563 17.866709 10.891421
35.637173 17.9161 10.891428
36.689522 17.924704 10.891429
36.895836 17.874096 10.891425
38.142746 17.705225 10.891427
39.565189 17.902349 10.891429
39.817951 17.953264 10.891427
40.070259 17.972359 10.891429
28.601254 18.002361 10.891429
29.029959 18.006981 10.891428
29.253838 18.002361 10.891429
32.104214 18.002361 10.891429
33.48439 18.009029 10.891428
33.71442 18.002363 10.891429
34.645721 18.016479 10.891429
35.027325 18.033279 10.891427
35.419647 18.036114 10.891427
35.644676 18.06237 10.891427
36.675617 18.034763 10.89143
36.858471 18.029638 10.891427
39.82008 18.182375 10.891421
40.180752 18.194223 10.891423
40.579327 18.193056 10.891424
41.016064 18.218529 10.891425
41.22541 18.182386 10.891429
41.945503 18.182386 10.891429
0.95519894 17.555054 11.410002
1.3893168 17.57077 11.41
1.8230854 17.57077 11.41
2.2491705 17.57077 11.41
-0.55711406 17.804892 11.410003
-0.11001377 17.602203 11.41
0.21785975 17.629301 11.410003
0.6358189 17.668365 11.409997
1.009055 17.693283 11.409988
1.3955226 17.694075 11.40999
1.805124 17.687916 11.40999
2.202215 17.68718 11.409989
2.6099241 17.698898 11.409989
3.0019922 17.696121 11.409989
3.3907831 17.704025 11.409991
3.8100131 17.724031 11.409997
4.1949372 17.742067 11.409996
4.5726786 17.774696 11.409989
5.0171657 17.849983 11.40999
5.390461 17.904467 11.409991
5.8025389 17.910034 11.409994
6.2064891 17.884727 11.409988
6.6046782 17.815395 11.410006
7.0252962 17.834358 11.410002
7.4041972 17.793022 11.410007
7.7914143 17.783869 11.410008
8.2185297 17.77359 11.410007
8.5957394 17.785786 11.410007
8.9885473 17.785246 11.410008
9.34867 17.752312 11.409995
9.8268862 17.718462 11.409989
10.183497 17.743332 11.409992
10.575037 17.703352 11.409998
11.039724 17.737982 11.41
11.400852 17.799198 11.409988
11.804193 17.837164 11.409995
12.214903 17.824213 11.40999
12.602568 17.8717 11.409993
13.00899 17.881762 11.409989
13.374227 17.861057 11.409993
13.811969 17.935511 11.410001
14.157959 17.944151 11.410003
22.748156 17.965921 11.409999
23.008598 17.963682 11.410003
23.43951 17.911945 11.409998
4.7148762 18.07369 11.41
5.0711112 18.054482 11.410002
5.4024606 18.043827 11.410003
5.7963257 18.043957 11.410003
6.1953454 18.043827 11.410003
6.5801721 18.041361 11.410003
7.0603399 18.031786 11.410002
7.4105878 18.024302 11.410002
7.7284675 18.026546 11.410002
8.292943 18.031782 11.41
8.9834099 18.07369 11.41
12.384408 18.07369 11.41
12.600548 18.10619 11.409988
13.001313 18.115829 11.409988
13.38191 18.114431 11.409992
13.778371 18.054554 11.410003
14.203355 18.04143 11.410003
14.61312 18.051235 11.410003
14.993305 18.045321 11.410003
15.415158 18.050528 11.410003
15.834015 18.122829 11.409992
16.191673 18.156755 11.409997
16.580462 18.216434 11.409989
17.008261 18.21973 11.409991
17.407141 18.235794 11.409993
17.79213 18.2897 11.40999
18.198769 18.287169 11.409991
18.608046 18.293726 11.409988
18.966684 18.275162 11.409995
19.374212 18.225945 11.410003
19.815952 18.211397 11.410002
20.19875 18.207283 11.410003
20.600082 18.244608 11.410003
21.005581 18.257956 11.410003
21.370798 18.24078 11.410002
21.798445 18.230852 11.410001
22.216793 18.259295 11.410002
22.648727 18.145531 11.410001
23.007717 18.082853 11.409992
23.405958 18.083538 11.409993
23.81942 18.115261 11.409989
24.185801 18.13051 11.409994
24.607725 18.18808 11.410006
24.986784 18.2017 11.410009
25.396982 18.249308 11.410001
25.810301 18.322338 11.409993
26.199739 18.31916 11.409994
26.5919 18.325146 11.409994
27.00827 18.317404 11.409992
27.430868 18.229475 11.410004
27.801853 18.201244 11.410007
28.189631 18.194088 11.410008
28.602077 18.195814 11.410009
28.974863 18.170937 11.410002
29.393095 18.128548 11.409996
29.78813 18.157812 11.409995
30.216646 18.169891 11.409993
30.600391 18.152264 11.409991
30.985058 18.159851 11.409989
31.396843 18.166584 11.409988
31.832893 18.22106 11.409995
32.208111 18.154116 11.409997
32.598564 18.153172 11.410001
33.013145 18.213968 11.409996
33.395607 18.259436 11.409996
33.785908 18.270649 11.409996
34.151196 18.297356 11.409992
34.544315 18.357952 11.410003
37.118008 18.171764 11.410003
37.273243 18.182274 11.410001
24.606188 18.444044 11.410003
24.988838 18.43516 11.410003
25.397463 18.43516 11.410003
25.786631 18.431419 11.410002
26.169306 18.419449 11.41
26.634022 18.475389 11.41
27.00172 18.502607 11.40999
27.409143 18.482311 11.409994
27.799309 18.486795 11.409994
28.190739 18.48794 11.409993
28.599106 18.500679 11.40999
28.910261 18.500996 11.410003
33.192726 18.419449 11.41
33.370846 18.419449 11.41
34.677914 18.427307 11.41
34.986996 18.424688 11.410001
35.501274 18.556814 11.410003
35.764481 18.506598 11.410003
36.244015 18.612696 11.410003
36.592106 18.677891 11.410003
37.071865 18.569214 11.410002
37.216087 18.513746 11.41
38.345036 18.676149 11.410001
38.549721 18.681009 11.410003
39.982147 18.592327 11.41
40.01358 18.592327 11.41
-0.57632577 18.17535 11.979999
0.61412334 18.151854 11.979991
1.0070918 18.209387 11.979988
1.4041383 18.204889 11.979987
1.7935452 18.207304 11.979987
2.200263 18.207085 11.979987
2.5891726 18.202093 11.979987
2.964407 18.229206 11.979989
3.3777449 18.265808 11.979991
3.8118176 18.300035 11.979994
4.2058716 18.294088 11.979994
4.6078982 18.239822 11.979989
4.995296 18.225971 11.979988
5.3988609 18.234982 11.979989
5.7933979 18.205971 11.979987
11.001395 18.301702 11.979995
11.39677 18.313814 11.979997
11.838177 18.340609 11.980002
12.178822 18.339067 11.980003
12.601186 18.335602 11.980002
12.93158 18.355034 11.979998
13.404442 18.358046 11.980001
13.819152 18.358528 11.979997
14.190045 18.357496 11.98
14.574304 18.36101 11.979998
14.97875 18.354033 11.979997
15.725812 18.382534 11.98
-0.63466835 18.569126 11.98
1.0956914 18.422136 11.98
1.4065461 18.431252 11.979998
1.7903996 18.436161 11.979999
2.1715813 18.432035 11.979998
2.5595467 18.415537 11.98
3.0032506 18.425694 11.979998
3.4262857 18.415539 11.979999
3.8910248 18.422138 11.979999
4.2181649 18.425848 11.979998
4.6472001 18.461945 11.980001
5.0074177 18.505554 11.979993
5.4086142 18.520308 11.979992
5.7958989 18.561811 11.979989
6.1848326 18.557396 11.979989
6.5660815 18.526272 11.979991
6.9941688 18.484764 11.980003
7.3376122 18.508726 11.98
7.7391467 18.44854 11.98
9.0427542 18.481543 11.98
9.5212946 18.415537 11.98
9.7593861 18.415537 11.98
10.29686 18.43754 11.979998
10.665628 18.444229 11.979998
11.019444 18.452885 11.980003
11.410542 18.469898 11.98
11.799882 18.481543 11.979997
12.209445 18.518082 11.979992
12.590551 18.514544 11.979992
12.989765 18.533653 11.979998
13.413679 18.531052 11.97999
13.803722 18.515833 11.979993
14.234782 18.564198 11.979989
14.603719 18.580547 11.979988
14.999985 18.597052 11.979987
15.393896 18.602003 11.979987
15.78211 18.603855 11.979988
16.175694 18.690847 11.980003
16.612173 18.757353 11.98
16.857807 18.765366 11.98
17.639973 18.778566 11.98
18.102009 18.753815 11.98
20.395702 18.778566 11.98
20.598219 18.763563 11.979997
21.002127 18.778566 11.98
21.373407 18.76619 11.98
21.857845 18.634857 11.979993
22.188055 18.642063 11.979989
22.578356 18.712008 11.979997
22.972864 18.716095 11.979998
23.390066 18.725891 11.98
23.818403 18.749821 11.980001
24.213556 18.737516 11.980003
24.606159 18.646559 11.979998
24.844473 18.527744 11.979999
25.568886 18.613552 11.979998
25.780264 18.607159 11.979988
26.1814 18.635555 11.979992
26.610125 18.671131 11.979991
27.016365 18.613049 11.979988
27.38168 18.744387 11.98
27.797558 18.757448 11.979999
28.200853 18.762068 11.979999
28.627224 18.740238 11.980001
29.001169 18.714918 11.979998
29.356421 18.741791 11.980002
29.806376 18.757792 11.98
30.237858 18.738228 11.980002
30.615553 18.754122 11.98
30.988087 18.762066 11.979997
31.416084 18.776028 11.979998
31.771944 18.76886 11.979998
32.183872 18.770315 11.979998
32.608665 18.768858 11.979998
32.870739 18.751062 11.979999
14.323195 18.811569 11.98
15.080195 18.836323 11.979998
15.395787 18.844572 11.980002
15.796723 18.846355 11.980002
16.17812 18.849651 11.980003
16.619038 18.856054 11.980001
17.023596 18.890192 11.979995
17.413757 18.904724 11.979993
17.795586 18.907228 11.979993
18.191019 18.901073 11.979996
20.231424 18.963013 11.979991
20.610218 18.943571 11.979989
21.002756 18.941051 11.97999
21.392931 18.950716 11.979991
21.801941 18.964783 11.979988
22.194357 18.960075 11.979989
22.590387 18.960079 11.979989
22.986418 18.960085 11.979989
23.40206 18.970602 11.979987
23.721031 18.9228 11.979999
24.20752 18.811569 11.979999
25.841158 18.825714 11.979998
26.210373 18.836323 11.979998
26.608038 18.893641 11.979993
27.023134 18.97098 11.979988
27.408661 18.970881 11.979988
27.804815 18.976595 11.979988
28.20085 18.97658 11.979988
28.582294 18.946434 11.97999
28.971092 18.850962 11.980001
29.393608 18.849648 11.980003
29.795828 18.844572 11.980002
30.214024 18.844566 11.980002
30.614292 18.84362 11.980002
31.029419 18.846851 11.98
31.442781 18.885237 11.979998
31.785421 18.8936 11.979995
32.193348 18.876451 11.979997
32.589378 18.876459 11.979997
32.960751 18.89258 11.980002
33.401619 18.970455 11.979995
33.737816 18.91358 11.979999
34.210102 18.883078 11.979999
34.56488 18.945414 11.979998
35.018921 19.000582 11.979999
35.378948 19.019014 11.979998
35.786991 19.054588 11.979997
36.07201 19.174601 11.98
38.909496 18.993082 11.980002
39.22377 19.174601 11.98
36.270023 19.240604 11.98
39.22377 19.314861 11.98
-0.64762104 18.953463 12.609996
-0.19453445 18.866367 12.609996
0.18527088 18.866051 12.609995
0.63841259 18.884504 12.609992
1.018099 18.896294 12.609991
1.4000188 18.888462 12.609991
1.8102506 18.882196 12.609992
2.190341 18.8958 12.609991
2.6157188 18.895418 12.609992
3.0240281 18.909014 12.609991
3.3992779 18.962811 12.609989
3.8038433 18.984488 12.609988
4.200438 18.982225 12.609989
4.5928526 18.970005 12.609989
5.004519 18.91968 12.60999
5.4147701 18.917198 12.60999
5.7927518 18.909025 12.60999
6.1937633 18.880625 12.609992
6.5835042 18.871275 12.609996
6.9901161 18.89377 12.609991
7.4159818 18.898914 12.609991
7.7263741 18.893774 12.609994
8.2111979 18.925634 12.60999
8.5951843 18.930681 12.60999
9.0016632 18.947313 12.609989
9.3954859 18.921598 12.60999
10.601288 18.956413 12.609989
10.992433 18.95747 12.609989
11.393229 18.989122 12.609988
11.781566 19.043381 12.609989
12.197747 19.023457 12.609989
12.585684 19.047009 12.609989
12.987678 19.056374 12.609989
13.397785 19.062061 12.609989
13.810082 19.052347 12.609989
14.206791 19.051802 12.609989
14.629724 19.043133 12.60999
15.033409 19.149071 12.61
15.421378 19.127874 12.609992
15.789134 19.094479 12.60999
16.186867 19.103115 12.60999
16.587536 19.144518 12.609996
16.994623 19.144056 12.609995
17.264931 19.158167 12.61
12.272835 19.245012 12.61
12.564573 19.21562 12.61
12.985504 19.233437 12.61
13.455877 19.255432 12.61
13.774818 19.308519 12.60999
14.21568 19.237301 12.609997
14.575678 19.268736 12.609993
15.018521 19.241539 12.609996
15.433599 19.254807 12.609993
15.835551 19.257277 12.609994
16.209753 19.286806 12.60999
16.61545 19.285339 12.609991
17.010096 19.396404 12.609988
17.384428 19.440252 12.609989
17.786615 19.437599 12.609988
18.194902 19.532335 12.609992
18.602354 19.540291 12.609992
19.005411 19.546968 12.609993
19.405678 19.539572 12.609992
19.767918 19.570454 12.61
20.138735 19.586077 12.61
21.190357 19.557657 12.61
21.408516 19.568771 12.609998
21.805513 19.573576 12.609998
22.201502 19.461283 12.609989
22.592299 19.464432 12.609989
22.963627 19.417089 12.609992
23.409571 19.417896 12.609992
23.79257 19.515974 12.609991
24.188669 19.516649 12.60999
24.592884 19.519258 12.609991
24.982616 19.530643 12.609991
25.395908 19.534742 12.609992
25.804232 19.503336 12.609991
26.05372 19.370607 12.61
28.696455 19.442961 12.609991
28.987415 19.475893 12.60999
29.413336 19.513449 12.60999
29.80209 19.511158 12.60999
30.197577 19.505024 12.60999
30.610479 19.526691 12.609992
31.000311 19.539564 12.609992
31.407452 19.5415 12.609992
31.807869 19.508026 12.60999
32.202396 19.505548 12.60999
32.590782 19.519499 12.60999
32.990955 19.525707 12.609991
33.428452 19.582174 12.61
33.701492 19.568346 12.61
34.564598 19.592396 12.61
39.810081 19.535007 12.609992
40.227982 19.470558 12.60999
40.632549 19.457848 12.60999
21.811411 19.670343 12.609993
22.187843 19.688808 12.609992
22.860277 19.691648 12.61
23.847836 19.627134 12.61
24.330698 19.634083 12.61
24.598572 19.638714 12.61
25.006937 19.654921 12.609996
25.373259 19.639393 12.61
25.643805 19.641031 12.61
28.745935 19.661871 12.61
29.005388 19.664043 12.609995
29.405966 19.661869 12.609994
29.800026 19.660786 12.609995
30.147278 19.657709 12.609998
30.591408 19.627134 12.61
31.038063 19.657082 12.609996
31.402292 19.659632 12.609995
31.765272 19.656088 12.609998
32.2024 19.661871 12.609995
32.614433 19.663799 12.609994
33.002151 19.685799 12.609992
33.407482 19.671789 12.609993
33.796795 19.677898 12.609993
34.195408 19.6756 12.609992
34.60355 19.708185 12.609995
34.989319 19.784443 12.609991
35.335358 19.818193 12.61
36.370991 19.905041 12.61
39.809803 19.800249 12.609988
40.192196 19.800827 12.609988
40.591694 19.800817 12.609988
40.89193 19.739288 12.609994
41.234352 19.696611 12.61
1.7886089 19.524345 13.31143
2.196903 19.562096 13.311431
-0.80675322 19.802126 13.311431
-0.64937514 19.695169 13.311431
-0.18721308 19.638075 13.311431
0.17462194 19.63624 13.31143
0.62340015 19.655443 13.311431
0.98914129 19.665098 13.311431
1.3827869 19.68371 13.311425
1.8241494 19.681025 13.311428
2.2127199 19.69758 13.311426
2.6036127 19.72879 13.311417
2.989733 19.717991 13.311419
3.429924 19.706785 13.31142
3.7000642 19.697615 13.31143
4.6755018 19.618773 13.311429
4.8551874 19.633442 13.311429
5.720614 19.618773 13.311429
6.2409873 19.64497 13.31143
6.7068601 19.670883 13.311431
6.9540792 19.668779 13.311431
7.3631153 19.702351 13.311428
8.6725979 19.655443 13.311429
9.0393028 19.649334 13.311431
9.368844 19.665361 13.311431
9.7802172 19.675451 13.311428
10.233815 19.715202 13.311423
10.590217 19.708549 13.311421
11.004706 19.691414 13.311423
11.414625 19.689953 13.311424
11.810381 19.676638 13.311427
12.263113 19.73752 13.311419
12.606199 19.783445 13.311413
12.999515 19.758986 13.311416
13.383759 19.78261 13.311413
13.794316 19.805548 13.311413
14.187412 19.802122 13.311413
14.593401 19.800634 13.311414
14.998281 19.799168 13.311414
15.389301 19.799425 13.311414
15.807252 19.818783 13.311414
16.208408 19.895849 13.311419
16.603365 19.894707 13.31142
16.914316 19.934139 13.31143
21.195608 19.869356 13.311429
24.23316 19.95492 13.311429
24.459293 19.985479 13.311429
12.578017 20.02215 13.311429
12.908052 20.095491 13.311429
15.362364 20.126923 13.311431
15.81631 20.103252 13.311423
16.205725 20.073128 13.31143
16.635513 20.039408 13.311431
17.025164 20.047152 13.311431
17.412985 20.088827 13.311431
17.771366 20.102427 13.311431
18.230658 20.180458 13.31143
18.549723 20.224356 13.311418
19.022875 20.297882 13.311423
19.387329 20.304089 13.31142
19.81007 20.306353 13.31142
20.173063 20.310579 13.311423
20.607803 20.350021 13.311431
21.074528 20.280916 13.311423
21.41563 20.205524 13.311412
21.800676 20.205496 13.311413
22.184414 20.216534 13.311412
22.586445 20.219715 13.311413
22.995445 20.221699 13.311413
23.395199 20.195763 13.311412
23.790052 20.203871 13.311412
24.233383 20.242628 13.311417
24.582815 20.29686 13.311421
25.02565 20.345051 13.311431
25.417091 20.336466 13.311429
25.817987 20.3409 13.311431
26.196833 20.343554 13.311431
26.621851 20.267286 13.311418
26.977812 20.268032 13.311417
27.349958 20.209452 13.311415
28.66641 20.055489 13.311431
28.871988 20.046598 13.311429
30.253826 20.256723 13.311419
30.590965 20.271158 13.31142
30.976183 20.346945 13.311431
31.394623 20.353323 13.311431
31.770651 20.354717 13.311431
32.187626 20.385799 13.311431
32.551273 20.379688 13.311431
33.810295 20.388855 13.311429
34.763733 20.388855 13.311429
34.892082 20.388855 13.311429
35.423805 20.388855 13.311429
37.9436 20.373138 13.31143
38.394123 20.388855 13.311429
38.678322 20.352186 13.311431
38.970852 20.368853 13.311431
39.462574 20.236057 13.311419
39.787617 20.205496 13.311412
40.190975 20.205511 13.311412
40.595886 20.207027 13.311412
40.997746 20.205505 13.311412
41.401119 20.205513 13.311412
41.804485 20.205507 13.311412
42.207851 20.205509 13.311412
42.617085 20.198486 13.311415
42.920429 20.213413 13.311424
43.564678 20.37052 13.311429
43.690411 20.228203 13.31143
24.214823 20.425526 13.311429
24.770992 20.425526 13.311429
25.050255 20.456554 13.311431
25.41395 20.460978 13.311431
25.80579 20.462198 13.311431
26.201147 20.462202 13.311431
26.586189 20.480532 13.311428
27.000292 20.4765 13.31143
27.33106 20.446152 13.311431
30.70377 20.436003 13.31143
30.974016 20.457138 13.311431
31.400307 20.450459 13.311431
31.779663 20.449972 13.311431
32.207405 20.473778 13.311431
32.617161 20.478294 13.31143
33.002728 20.482565 13.311427
33.373688 20.465631 13.311431
33.810295 20.443857 13.311431
34.218452 20.452633 13.311431
34.611618 20.478495 13.311431
35.022545 20.508038 13.311423
35.364216 20.524076 13.311419
37.888321 20.529215 13.311431
38.221073 20.596949 13.311415
38.64603 20.588156 13.311419
38.998322 20.61762 13.311413
39.388618 20.61515 13.311412
39.787609 20.608889 13.311412
40.190979 20.608889 13.311412
40.594357 20.608887 13.311412
40.997746 20.608868 13.311412
41.401115 20.608887 13.311412
41.762272 20.579891 13.311416
42.21233 20.477406 13.31143
42.634575 20.474419 13.311431
42.982533 20.479383 13.311431
43.564678 20.462196 13.311429
43.659412 20.459139 13.311431
44.353096 20.462196 13.311429
44.774807 20.480532 13.311429
44.811478 20.498867 13.311429
1.4057223 20.325169 14.094293
-0.87943685 20.564844 14.094286
-0.68594784 20.591377 14.094287
0.30002862 20.444304 14.094285
0.56784827 20.440109 14.094285
1.0289215 20.449007 14.094285
1.3893398 20.445068 14.094287
1.8159822 20.508871 14.094293
2.1998234 20.534378 14.094295
2.5872064 20.541792 14.094295
2.9872701 20.588137 14.094285
3.5138645 20.423124 14.094286
3.8050692 20.423124 14.094285
4.1415715 20.423124 14.094285
5.5328808 20.461952 14.094286
5.7507453 20.493593 14.094289
6.7171116 20.442539 14.094285
7.0180225 20.452246 14.094288
7.3771749 20.452244 14.094288
7.8371277 20.45598 14.094289
8.2240267 20.477695 14.094291
8.6002312 20.481367 14.094292
9.0026703 20.477697 14.094291
9.3798418 20.479324 14.094292
9.8060341 20.46339 14.094289
10.204014 20.477057 14.094292
10.56748 20.474899 14.094292
11.093494 20.551811 14.094292
11.381697 20.561426 14.094296
11.789216 20.62756 14.094293
12.216659 20.584291 14.094294
12.593555 20.544304 14.094295
12.999487 20.533876 14.094295
13.407576 20.558641 14.094294
13.804268 20.551491 14.094293
14.202805 20.586397 14.094292
14.598477 20.652721 14.094295
14.980326 20.662294 14.094294
15.381881 20.706463 14.094291
15.801893 20.700462 14.094293
16.212528 20.65979 14.094295
16.557873 20.674526 14.094292
16.971815 20.707865 14.094292
17.343826 20.742702 14.094285
17.868292 20.760921 14.094286
18.181364 20.754185 14.094285
18.616165 20.766598 14.094285
18.884596 20.753157 14.094285
17.036663 20.881769 14.094291
17.389305 20.874046 14.094293
17.818169 20.905991 14.094294
18.188309 20.985088 14.094282
