# .PCD v0.7 - Point Cloud Data file format
VERSION 0.7
FIELDS x y z rgb
SIZE 4 4 4 4
TYPE F F F U
COUNT 1 1 1 1
WIDTH 1175
HEIGHT 1
VIEWPOINT 0 0 0 1 0 0 0
POINTS 1175
DATA ascii
0.40176308 27.310324 10.417143 4291020742
-0.48785517 27.873339 10.417144 4290559422
0.18653286 27.606863 10.417143 4290822593
-0.45915782 28.238205 10.417143 4292599002
-0.46176669 28.608662 10.417144 4292599259
-0.33862886 28.691626 10.417143 4292731101
-0.43952274 28.963192 10.417144 4291875533
-0.37306571 28.879114 10.417143 4292599000
1.7792366 29.558285 10.417143 4292139736
1.7792366 30.046139 10.417143 4290560191
37.075863 -0.85811239 10.891428 4279179018
37.374695 -0.85479307 10.891424 4279046922
37.654942 -0.81010628 10.891429 4278190592
38.495052 -0.84011024 10.891429 4278850311
39.113876 -0.84761119 10.891429 4278322948
39.379681 -0.84591728 10.891427 4278323457
39.855946 -0.83582401 10.891428 4278916870
40.116379 -0.85122287 10.891429 4278322433
40.597828 -0.84761125 10.891427 4278190080
41.062317 -0.85241956 10.891425 4278585349
41.330421 -0.8551122 10.891427 4278255872
43.552383 -0.83677649 10.891428 4279575054
43.640728 -0.8551122 10.891428 4279377419
37.099865 -0.71391732 10.891426 4279112715
37.418541 -0.64122021 10.891438 4278585860
37.781242 -0.56705117 10.891437 4278586885
38.202095 -0.54974961 10.891421 4278389763
38.555389 -0.55740643 10.891422 4278586630
39.027882 -0.62853074 10.891424 4278190336
39.392975 -0.60596907 10.891446 4278717958
39.799961 -0.60225773 10.891449 4279047944
40.121635 -0.60007876 10.891421 4279179017
40.596577 -0.61320555 10.891425 4278190080
41.063446 -0.62689632 10.891431 4279112203
41.339489 -0.59332097 10.89143 4278519299
41.720474 -0.51006693 10.891429 4278190080
43.553715 -0.75309879 10.891428 4279706383
43.649063 -0.74676466 10.891428 4279114246
5.4773259 -0.11787262 10.891424 4281158176
5.7336097 -0.082868055 10.891425 4280367632
37.174877 -0.060007874 10.891429 4278190080
37.497177 -0.21777053 10.891427 4278322434
37.809284 -0.23469168 10.891433 4278322434
38.131092 -0.25655541 10.891423 4278190592
38.618401 -0.32670957 10.891429 4278587141
39.015919 -0.27363592 10.89143 4278190080
39.369453 -0.3750492 10.891428 4278914570
39.791477 -0.34629557 10.891425 4278388738
40.188908 -0.25912496 10.891424 4278981129
40.554176 -0.26232013 10.891426 4278190336
41.142693 -0.27490091 10.891426 4278453763
41.332306 -0.29113206 10.891423 4280165140
43.235672 -0.36004725 10.891429 4279179272
5.0969834 0.29898664 10.891424 4281354525
5.4059939 0.20099239 10.891448 4280829210
5.7617483 0.21042497 10.891443 4282211884
6.1733098 0.33504394 10.89143 4283595067
5.0189714 0.56212205 10.891422 4285302086
5.4601212 0.56324214 10.891425 4282408994
5.7907591 0.60007906 10.891447 4283133738
6.1403508 0.60439801 10.891438 4283003440
5.0415058 1.0192888 10.891423 4280959772
5.4395366 1.0274466 10.891434 4280172564
5.791831 0.9912017 10.891447 4280765466
6.1406503 0.98158997 10.891438 4280567830
12.9617 0.8551122 10.891429 4278324736
17.672319 1.0501378 10.891429 4278784774
5.1212974 1.2282861 10.891429 4279906839
5.4109378 1.2390262 10.891425 4279051786
5.7484336 1.2639157 10.891424 4279578127
6.0907993 1.2301614 10.891429 4281552425
16.582174 1.7202257 10.891429 4278191104
54.967213 3.6304762 10.891429 4278191104
54.57716 5.1456747 10.891429 4278520322
3.5404644 6.3908386 10.891429 4278190080
56.212376 7.4409761 10.891429 4278190080
22.682976 13.786809 10.891429 4282590472
23.01552 13.796809 10.891427 4282261512
37.56493 14.356884 10.891429 4281940789
37.639938 14.071846 10.891429 4282533175
23.193041 14.659066 10.891428 4281406470
23.384636 14.684939 10.891422 4282591254
23.636435 14.758604 10.891428 4282064659
37.504921 14.593915 10.891429 4284374095
51.021694 14.521905 10.891429 4280297493
19.862606 14.94196 10.891429 4282328601
22.968014 15.181992 10.891429 4282591259
23.521418 14.860284 10.89143 4282657304
23.643103 14.851949 10.891428 4283777331
37.444912 15.055975 10.891429 4284109634
21.401558 15.532041 10.89143 4283444497
21.702848 15.562042 10.891429 4283707669
22.1189 15.549541 10.89143 4283313688
22.772987 15.242 10.891429 4280686096
22.95801 15.290133 10.891425 4281737494
23.343063 15.302007 10.891429 4283512615
35.904713 15.542039 10.891429 4283056694
37.478664 15.425774 10.891428 4284175440
48.171318 15.2495 10.891429 4281409554
48.726395 15.272004 10.891429 4286079037
49.731525 15.302008 10.891429 4282861604
51.964745 15.422026 10.891428 4282663500
52.089634 15.45412 10.891425 4282532152
54.565163 15.572042 10.891429 4282004514
54.907207 15.566042 10.891428 4282137636
55.302258 15.562042 10.891429 4282005795
21.392807 15.602047 10.891429 4281342729
22.075396 15.602047 10.891429 4283379224
22.584183 15.935745 10.891425 4286481542
35.819698 15.667056 10.891429 4282859831
37.144875 15.752067 10.891429 4283320127
51.939884 15.859774 10.891425 4282532412
52.204166 15.91093 10.891422 4283057968
52.616344 15.893517 10.891422 4283715120
53.006084 15.857511 10.891439 4284044336
53.397266 15.877487 10.89143 4284437814
53.806427 15.884894 10.891422 4283121451
54.207035 15.876015 10.891435 4284174133
54.603218 15.814337 10.891445 4283253546
54.981373 15.799992 10.891445 4283188777
55.358177 15.807236 10.891438 4283123505
55.734459 15.79493 10.891428 4281675553
22.627058 16.066427 10.891425 4284376166
22.893005 16.152121 10.891429 4284968304
35.637177 16.119614 10.891428 4283517761
37.032356 16.292137 10.891429 4285028426
48.09631 16.14962 10.891429 4282131724
51.917126 16.090546 10.891427 4282598459
52.223438 16.097502 10.891422 4282927405
52.551453 16.106544 10.891423 4282861351
53.00721 16.052101 10.891425 4284569908
53.427017 16.099192 10.891422 4283713581
53.803535 16.127998 10.891426 4283186731
54.21167 16.158434 10.891439 4282989862
54.57103 16.14241 10.891426 4282859301
54.872913 16.052105 10.891428 4283057449
55.575863 16.047819 10.891428 4284700224
55.808987 16.07711 10.891426 4284042297
56.190941 16.067102 10.891428 4283912251
-0.4350571 16.742197 10.891429 4288981161
-0.28253707 16.749699 10.891427 4289112747
22.772987 16.487164 10.891429 4283191885
23.017635 16.499859 10.891428 4286679176
37.0364 16.624489 10.891428 4285160522
-0.46585062 16.991705 10.891426 4289178541
-0.20411438 16.957035 10.891439 4289112747
0.19711192 17.016607 10.891443 4289112491
0.5803262 17.058987 10.891434 4289046699
0.99078929 17.095322 10.891422 4288981161
1.4031087 17.092617 10.891428 4288849575
1.7984363 17.091135 10.891424 4288915367
2.1855497 17.096561 10.891421 4288981159
2.5900357 17.100428 10.891424 4288981160
2.9925513 17.104286 10.891422 4288981160
3.3822298 17.108328 10.891422 4288849573
3.7902043 17.133133 10.891423 4289178794
4.2084212 17.136189 10.891423 4289375915
4.5652657 17.150919 10.891424 4290231222
4.8231325 17.184753 10.891429 4291086786
6.5708623 17.192255 10.891429 4283983688
7.5343223 17.175589 10.891428 4282936381
7.7382035 17.129436 10.891427 4283200321
8.2027426 17.183924 10.89143 4284187727
8.6164246 17.179903 10.891429 4283068731
9.0660744 17.059675 10.891422 4283002171
9.3821163 17.107183 10.891422 4283857478
9.8335133 17.110395 10.891422 4282016045
10.208157 17.077703 10.89143 4281226530
10.558495 17.102243 10.891422 4281555238
10.983241 17.152054 10.891424 4281949995
11.405782 17.150005 10.891425 4282344752
11.695765 17.150713 10.891429 4282213422
30.844048 17.192255 10.891429 4284902499
35.539661 17.162254 10.891427 4289112490
35.69268 16.961224 10.891428 4287071614
36.949848 16.802204 10.891429 4282925365
-0.49435058 17.409426 10.89143 4289112748
-0.27228576 17.341526 10.891425 4289573555
0.32254231 17.244764 10.891429 4288387997
0.54007089 17.247261 10.891427 4288585634
1.4251872 17.244259 10.891428 4289112747
1.8018581 17.251451 10.891426 4289046953
2.1902874 17.252266 10.891425 4288981160
2.602484 17.253691 10.891425 4289244332
2.9907496 17.272621 10.891424 4289112747
3.3876674 17.270046 10.891424 4289310126
3.7932849 17.273411 10.891423 4289375660
4.2037096 17.294903 10.891424 4289770417
4.5966039 17.338686 10.891424 4290625725
5.0006557 17.394341 10.891433 4290625981
5.4082093 17.404613 10.891432 4290494651
5.7810607 17.386518 10.891424 4290297526
6.2017622 17.394003 10.891432 4290429364
6.5986171 17.367779 10.891434 4288391317
6.9969196 17.377567 10.891436 4285956968
7.4055176 17.406286 10.891446 4285498467
7.7992148 17.405365 10.891446 4283395909
8.1910725 17.402273 10.891447 4282606132
8.5935011 17.400099 10.891448 4283527998
8.9776278 17.338644 10.891428 4284317769
9.3895454 17.310257 10.891422 4284383305
9.7922983 17.296309 10.891422 4283660608
10.209249 17.314579 10.891422 4283529021
10.587231 17.324755 10.891425 4283529535
11.002327 17.316986 10.891426 4282279214
11.400054 17.327568 10.891427 4282410544
11.770066 17.368879 10.891422 4282278958
12.194584 17.457815 10.891423 4282213167
12.600153 17.484795 10.891423 4283133243
13.016042 17.433624 10.891422 4284511558
13.398532 17.405592 10.891437 4286286178
13.798293 17.417284 10.891437 4285300309
14.201136 17.407467 10.89143 4285168977
14.597263 17.412989 10.891437 4285169999
14.983407 17.447281 10.891433 4284249665
15.40202 17.493671 10.891422 4283986748
15.800495 17.527563 10.891424 4283921211
16.202126 17.5508 10.891425 4284184640
16.483902 17.539261 10.891431 4283196983
18.260269 17.527409 10.891424 4292006841
18.615356 17.501461 10.891422 4290954665
18.989527 17.503414 10.891422 4291218093
19.390497 17.507105 10.891422 4289836695
19.797859 17.530716 10.891424 4290296734
20.180372 17.505257 10.891425 4288322946
20.5977 17.452284 10.891428 4288257152
21.003868 17.502296 10.891424 4286876011
21.401604 17.528507 10.891424 4286678628
21.799555 17.47352 10.891432 4284773193
22.201292 17.468781 10.89143 4282670641
22.579599 17.475954 10.891425 4281814571
23.015354 17.507481 10.891422 4282142511
23.280483 17.486296 10.891426 4281353253
25.093292 17.582306 10.891429 4281683239
27.036882 17.525633 10.891428 4280631064
27.35759 17.528301 10.891429 4281091871
27.84746 17.510866 10.891423 4281223458
28.197521 17.518326 10.891423 4281552677
28.604065 17.52136 10.891423 4281552932
28.996609 17.50876 10.891422 4281486884
29.397606 17.512701 10.891422 4281355554
29.782766 17.51458 10.891423 4281684772
30.18396 17.519728 10.891423 4281750822
30.607906 17.534523 10.891424 4281882157
30.994068 17.531946 10.891424 4281750059
31.382353 17.539942 10.891424 4282145072
31.800838 17.582306 10.891428 4282276401
32.194225 17.582306 10.891428 4282407477
32.637619 17.573971 10.89143 4286944380
32.946465 17.57159 10.891428 4289246113
33.274368 17.572306 10.891429 4288915359
35.511322 17.363943 10.891426 4286151031
35.63377 17.290451 10.891427 4288848806
-0.52256852 17.751078 10.89143 4288980904
7.54599 17.61231 10.891429 4290364340
7.8245978 17.616594 10.891428 4287272327
8.2030764 17.618311 10.891429 4287207044
8.5686235 17.617311 10.891427 4284710482
10.249345 17.708324 10.891429 4282870322
14.356885 17.707323 10.891427 4283066930
14.536908 17.678318 10.891428 4283395637
15.015303 17.682739 10.891422 4282869038
15.387498 17.68218 10.891422 4282671660
15.814152 17.779507 10.891445 4282867757
16.202122 17.792334 10.891447 4283787577
16.575096 17.823006 10.891439 4286482017
16.99501 17.862532 10.891432 4288914312
17.400768 17.849823 10.891434 4288848520
17.763889 17.808702 10.891422 4287928187
18.160715 17.627312 10.89143 4291085994
18.75246 17.696321 10.891429 4285563740
19.026852 17.685865 10.891423 4285301334
19.39839 17.69322 10.891422 4285892440
19.772593 17.69129 10.891423 4289113481
20.114639 17.648315 10.891429 4287929471
21.117771 17.66065 10.89143 4283592766
21.368261 17.666319 10.891424 4283855933
21.806004 17.636312 10.891426 4283395638
22.209772 17.638887 10.891426 4282869042
22.593798 17.643148 10.891426 4282604849
23.024849 17.680771 10.891423 4283065143
23.403069 17.732925 10.891424 4282606644
23.790298 17.726675 10.891422 4282144815
24.204052 17.726456 10.891421 4283327805
24.60891 17.727589 10.891421 4282737207
24.992157 17.725037 10.891428 4281881642
25.385748 17.746847 10.891423 4283196218
25.819807 17.860245 10.891421 4282932790
26.179028 17.838514 10.891426 4283064376
26.602753 17.810112 10.891422 4283853122
27.015392 17.8253 10.891422 4283918404
27.413395 17.8517 10.891421 4284048194
27.814209 17.80621 10.891445 4283128375
28.197624 17.79455 10.891446 4282668851
28.594479 17.793421 10.891446 4282274091
29.002901 17.795914 10.891447 4282670129
29.387945 17.733128 10.891431 4281882151
29.750727 17.686417 10.891423 4282212139
30.211962 17.635313 10.891428 4281553956
30.606516 17.612309 10.891427 4281817133
31.024069 17.622309 10.89143 4281290019
31.427967 17.676931 10.891423 4281684520
31.808043 17.706846 10.891421 4281750569
32.17955 17.709656 10.891422 4281816365
32.619373 17.723219 10.891431 4282341686
33.003223 17.757034 10.891439 4283459145
33.400715 17.782921 10.891444 4284971620
33.770699 17.82128 10.89144 4284313688
34.207893 17.82984 10.891438 4284840286
34.574257 17.827772 10.891427 4283722574
35.009651 17.863283 10.891422 4283787081
35.406563 17.866709 10.891421 4285364325
35.637173 17.9161 10.891428 4285363293
36.689522 17.924704 10.891429 4288390311
36.895836 17.874096 10.891425 4289641153
38.142746 17.705225 10.891427 4285298824
39.565189 17.902349 10.891429 4284050298
39.817951 17.953264 10.891427 4283852922
40.070259 17.972359 10.891429 4284313218
-0.54007089 18.149652 10.891427 4290033849
15.808613 18.02083 10.891429 4283851833
16.190874 18.019865 10.89143 4286218592
16.600178 18.006365 10.891429 4287533423
17.006229 18.030869 10.891425 4289045897
17.402283 18.032364 10.891425 4286812014
17.642315 18.039867 10.891428 4283264066
27.519611 18.008362 10.891429 4284578642
27.848269 18.02429 10.891429 4286220641
28.106188 18.021116 10.891429 4286219614
28.601254 18.002361 10.891429 4283786307
29.029959 18.006981 10.891428 4282274347
29.253838 18.002361 10.891429 4281881126
32.104214 18.002361 10.891429 4281158944
33.48439 18.009029 10.891428 4282015022
33.71442 18.002363 10.891429 4281750825
34.645721 18.016479 10.891429 4282209580
35.027325 18.033279 10.891427 4282865974
35.419647 18.036114 10.891427 4282997306
35.644676 18.06237 10.891427 4282470194
36.675617 18.034763 10.89143 4283981151
36.858471 18.029638 10.891427 4281876045
38.281693 18.235725 10.891428 4282732898
39.48518 18.239893 10.891426 4284248200
39.82008 18.182375 10.891421 4284445323
40.180752 18.194223 10.891423 4284050564
40.579327 18.193056 10.891424 4283458428
41.016064 18.218529 10.891425 4283458686
41.22541 18.182386 10.891429 4283129722
41.945503 18.182386 10.891429 4283852668
42.288109 18.24588 10.891425 4284182143
42.647522 18.277824 10.891422 4285497482
42.995136 18.267397 10.891434 4287141012
43.328766 18.28961 10.891423 4288125593
43.769073 18.341576 10.891426 4287466893
-0.55007225 18.59244 10.891427 4289506736
38.467548 18.52743 10.891427 4282730298
41.945503 18.714956 10.891429 4286351253
42.296291 18.62606 10.891421 4283785071
42.608479 18.605507 10.891446 4282928986
42.994194 18.599163 10.891446 4282664777
43.346039 18.571896 10.891431 4285888378
43.733742 18.48757 10.891426 4286151292
-0.54007083 18.968489 10.891429 4290823879
42.29055 18.812468 10.891428 4281086265
42.647594 18.812468 10.891428 4280887603
43.022919 18.837017 10.891427 4284769640
43.305389 18.88747 10.891426 4284638052
43.68573 18.932484 10.891429 4286480257
-0.50256592 19.382542 10.891429 4290822852
-0.52340198 19.749258 10.891428 4290362558
-0.46172726 20.264326 10.89143 4292665314
-0.48381346 20.593952 10.891428 4292862948
-0.39005119 20.657711 10.891429 4292994534
-0.45756003 20.977753 10.891427 4292928741
-0.35404643 20.930746 10.891429 4293060327
-0.47544697 21.427427 10.891428 4292467420
-0.34204489 21.506821 10.891428 4292401627
-0.44605845 21.78686 10.891429 4292072662
-0.36004728 21.698847 10.891428 4292270041
-0.52506888 22.0979 10.891429 4291546318
-0.55007213 23.503082 10.891429 4291875537
-0.54007083 23.658104 10.891429 4291875794
-0.55207241 25.05929 10.891429 4292072660
-0.5700748 26.013412 10.891429 4291875795
-0.5186395 26.54277 10.891428 4291809488
-0.48756397 27.4161 10.891427 4291677389
-0.25503346 27.408596 10.891429 4291875025
0.25849545 27.377438 10.891428 4292533982
-0.49506497 27.763641 10.891429 4292862178
-0.31004068 27.723639 10.891429 4292796385
-0.49506497 28.221201 10.891427 4291941333
0.27003542 28.113689 10.891429 4292205018
-0.51237494 28.570671 10.891428 4291282888
0.1425187 28.533743 10.891429 4290889157
-0.53006953 29.053812 10.891429 4290295993
0.15001968 28.80378 10.891429 4290889156
-0.51006693 29.49387 10.891429 4292664795
-0.48863554 30.220396 10.891428 4292533207
-0.27003545 30.141956 10.891429 4292401879
0.39005119 30.213964 10.891429 4290560191
1.860244 30.934059 10.891429 4292337115
1.8602442 31.434122 10.891429 4290626241
11.801856 -0.89896971 11.410002 4278322947
12.223613 -0.88736433 11.409999 4279113485
12.601575 -0.89154041 11.409998 4279047948
13.005807 -0.88978165 11.409999 4278190336
13.389649 -0.89401281 11.409999 4278256897
13.71832 -0.89484447 11.410003 4279114000
14.238925 -0.94297522 11.41 4278719497
15.534642 -0.91503513 11.41 4278190080
15.757113 -0.90525627 11.410002 4279179790
16.046295 -0.88011014 11.410001 4279114768
16.670237 -0.8761813 11.410003 4278917390
16.998489 -0.8855294 11.409996 4278917133
17.403322 -0.88227826 11.409996 4278390789
17.790787 -0.88010979 11.409994 4280827167
18.186949 -0.88390368 11.409996 4280236823
18.479694 -0.8801102 11.410001 4281092646
38.711376 -0.86663914 11.409999 4278454785
40.972275 -0.85653585 11.41 4278191362
42.687195 -0.88473272 11.410003 4278190080
42.839645 -0.89154017 11.410001 4278190080
43.492111 -0.86963272 11.41 4278190080
43.659752 -0.8801102 11.41 4278190080
44.319836 -0.89058775 11.41 4278190080
44.659302 -0.91363817 11.410002 4278191104
45.016827 -0.88210607 11.409994 4278521602
45.396801 -0.88176435 11.409997 4279180296
45.688896 -0.90805024 11.41 4279509261
46.877659 -0.90761364 11.41 4278190336
47.444759 -0.88600397 11.410001 4279380492
47.671135 -0.87711662 11.410002 4279512333
56.232754 -0.91154271 11.41 4278190080
5.3947487 -0.6845302 11.410003 4280892195
6.6724958 -0.52303708 11.409991 4281091615
6.9989762 -0.48657501 11.409991 4281947948
7.3132968 -0.4400551 11.410001 4279907602
7.7323966 -0.40862259 11.41 4281026083
12.23264 -0.64338422 11.409994 4279113486
12.557284 -0.68627644 11.410001 4278784008
13.107355 -0.77009648 11.41 4278190592
13.441682 -0.68294269 11.410001 4278322178
13.767438 -0.78581268 11.41 4278190080
14.173442 -0.41124192 11.410001 4280234009
15.509979 -0.62865007 11.410002 4278190080
15.804504 -0.64315742 11.410003 4279640853
16.036293 -0.58007264 11.410001 4279246865
16.660355 -0.7341736 11.410003 4278653962
17.036417 -0.75438017 11.409999 4279905308
17.483206 -0.73866385 11.410002 4278522630
17.775461 -0.75054687 11.410003 4279115533
18.07369 -0.77009642 11.410001 4278327558
38.744495 -0.72294766 11.41 4278256896
39.020718 -0.56373519 11.410003 4278454020
39.26968 -0.48615611 11.410002 4278257920
39.809269 -0.47148761 11.410001 4278190336
40.217884 -0.47246981 11.410003 4278389762
40.584606 -0.42433885 11.41 4278388994
41.007332 -0.57465076 11.410003 4278190080
41.333744 -0.4371976 11.410001 4278190080
41.742371 -0.47148758 11.41 4278257409
42.688992 -0.5906387 11.409988 4278190080
42.896385 -0.52793795 11.410001 4278387715
43.523537 -0.63447082 11.410003 4278190080
43.674835 -0.60350406 11.410003 4278190080
44.20932 -0.6195246 11.409995 4278190080
44.642265 -0.59924555 11.410003 4278190336
45.029434 -0.59180564 11.410007 4278718468
45.364391 -0.62977231 11.409997 4278718722
45.727684 -0.63692182 11.410002 4279113481
46.852112 -0.52060091 11.410002 4278190080
47.458138 -0.60879803 11.409997 4278586628
47.679703 -0.60883397 11.410003 4278784774
56.33902 -0.48645547 11.410002 4278387458
56.638237 -0.51339763 11.410003 4278321921
56.998138 -0.5300799 11.409994 4278586371
57.399849 -0.52882278 11.409996 4278719239
57.640232 -0.51689011 11.41 4278653702
58.275867 -0.40862259 11.41 4278783494
58.429108 -0.51077825 11.41 4278322945
58.926033 -0.43012911 11.410002 4278454530
5.565649 -0.11315703 11.410002 4281290527
5.8107271 -0.21859878 11.410003 4280367893
6.2180085 -0.17833802 11.40999 4280630552
6.6032786 -0.20227017 11.410007 4281816105
7.0094552 -0.2043113 11.410007 4280501019
7.4022517 -0.20354193 11.410006 4281027615
7.7837396 -0.18678582 11.410005 4280763933
8.1654568 -0.19155012 11.409999 4280763680
11.871815 -0.048357703 11.410002 4280363807
12.327092 -0.096146494 11.410002 4278586372
12.643249 -0.15010625 11.409992 4279640592
12.999615 -0.17845547 11.410001 4279641613
13.331825 -0.19064499 11.409989 4279839248
13.712433 -0.24753097 11.410002 4280431388
14.18731 -0.20316122 11.410001 4279708180
15.524029 -0.18738607 11.410003 4278190080
15.83192 -0.19164668 11.409994 4280761118
16.044867 -0.26289007 11.410001 4278984199
17.050146 -0.14078209 11.409992 4278918155
17.308155 -0.13485557 11.410003 4279312911
39.066673 -0.22081335 11.410003 4278190336
39.349949 -0.2014336 11.409992 4278190336
39.825775 -0.10922796 11.410003 4278190080
40.146965 -0.19746055 11.40999 4278322434
40.599751 -0.20048839 11.410003 4278256641
41.038696 -0.1980585 11.409989 4278255873
41.380795 -0.19456014 11.410004 4278321922
41.793133 -0.19262478 11.40999 4278190592
42.160492 -0.14985263 11.410003 4278387714
42.630623 -0.18393843 11.409996 4278321922
42.968822 -0.19329531 11.409995 4278321922
43.362419 -0.1469682 11.410003 4278190080
43.659752 -0.23574379 11.41 4278190080
44.319836 -0.27503443 11.41 4278190080
44.791321 -0.22002755 11.41 4278191360
45.044556 -0.26646185 11.409988 4278981638
45.358604 -0.19667758 11.409995 4279310601
45.788712 -0.24723782 11.409993 4278322944
46.080059 -0.28289255 11.41 4278388226
46.842297 -0.29860881 11.41 4278190080
47.318497 -0.33318457 11.41 4278190080
55.94986 -0.28289255 11.41 4278782727
56.288414 -0.21964879 11.409989 4278981127
56.634686 -0.20456891 11.409995 4278718468
57.002876 -0.20431122 11.410006 4278981896
57.398422 -0.2142722 11.410005 4278587396
57.771461 -0.20283787 11.409994 4278916361
58.200729 -0.18779594 11.409999 4279376140
58.560802 -0.22549392 11.409989 4279112713
58.935947 -0.20431118 11.409996 4278454530
5.1549311 0.34575757 11.41 4279971340
5.371706 0.13006553 11.410003 4280499990
6.287724 0.15022282 11.40999 4281027613
6.6050601 0.17710999 11.410007 4281488162
7.0094523 0.18859495 11.410009 4279908115
7.4024668 0.1921813 11.410007 4279907348
7.7950716 0.17685753 11.410007 4279117834
8.0966167 0.18859497 11.40999 4279643921
11.598595 0.36147383 11.41 4279706384
11.833785 0.21147999 11.409998 4280167704
12.292045 0.17850548 11.409989 4279115018
12.604446 0.18859498 11.410009 4280828188
12.99733 0.18859483 11.410007 4280565271
13.378121 0.20461933 11.410007 4280301843
13.789547 0.23574385 11.409999 4278718469
14.217425 0.1535781 11.409998 4279180300
14.439308 0.1610916 11.41 4280367131
15.522585 0.19062296 11.410003 4278190080
15.87207 0.11764737 11.409992 4280563485
16.041056 0.052387506 11.41 4279839762
17.048847 0.14327373 11.410003 4279444496
17.275307 0.15716253 11.41 4279312908
17.979393 0 11.41 4278323970
38.997261 0.010477502 11.41 4278190080
39.392788 0.0078581264 11.41 4278190080
41.239449 0 11.41 4278190848
42.528183 0.010477502 11.41 4278190080
43.114918 0 11.41 4278190080
45.148174 0.099844433 11.410002 4278389504
45.369465 0.095328048 11.409995 4280232210
45.765728 0.062865011 11.41 4278388992
46.834435 0.047148757 11.41 4278190080
56.781761 0.20535903 11.410002 4278718213
57.005424 0.18710825 11.410007 4278784005
57.408794 0.17786199 11.410001 4278389505
57.660114 0.17892347 11.410003 4278652931
58.223469 0.18073687 11.41 4279574032
58.506672 0.24113214 11.409992 4278915848
58.934738 0.18315466 11.409994 4278849543
5.1037073 0.55414337 11.410003 4279773707
6.3650827 0.40862259 11.41 4282082089
6.6849885 0.58640224 11.409989 4282937654
6.9938421 0.5828371 11.410007 4280764189
7.3590393 0.45922124 11.410003 4279907094
7.6380992 0.40862259 11.41 4278196480
11.570209 0.57693863 11.410003 4279047947
11.799599 0.59308183 11.410007 4279443981
12.214673 0.56481779 11.410003 4279576336
12.604445 0.5972175 11.410009 4279972628
12.99733 0.59721744 11.410007 4280104725
13.390243 0.59721762 11.410009 4279907346
13.763709 0.58487755 11.410004 4279707410
14.207491 0.42711234 11.410002 4278190080
16.344904 0.71247011 11.41 4278190336
16.778671 0.68522865 11.41 4278521860
17.026501 0.60481197 11.410007 4280169751
17.320797 0.60979062 11.409989 4280433177
46.850155 0.7072314 11.41 4278191873
56.358486 0.64611262 11.41 4278190080
56.748947 0.61258453 11.410003 4279640334
56.998589 0.58161122 11.410006 4279772174
57.406078 0.58114135 11.410003 4278587138
57.792057 0.61994267 11.410007 4278718470
58.199429 0.60050434 11.410007 4278849799
58.590179 0.5972181 11.410009 4278850055
58.93594 0.59721732 11.409999 4279376397
5.1570263 1.0100312 11.410002 4278522626
5.2177958 1.1944352 11.41 4280234518
6.6920357 0.95585757 11.409995 4280502039
6.9110518 0.905393 11.410003 4280896542
11.567163 0.87561995 11.410002 4278190336
11.762673 0.88765419 11.41 4278389761
12.308072 0.84867769 11.410002 4279115788
12.573002 0.83885509 11.410002 4278918666
13.022586 0.89868391 11.409993 4278786568
13.38158 0.91009766 11.409988 4279313166
13.755215 0.86264771 11.410002 4278916106
16.35276 0.84867769 11.41 4278522117
16.774481 0.83820015 11.41 4280168218
17.041664 0.88534909 11.409995 4280499482
17.35438 0.89280373 11.409999 4279380236
17.670309 0.94297528 11.41 4281815857
18.49279 1.0687052 11.41 4278323713
56.355339 1.0309862 11.410001 4278190080
56.563339 1.0687051 11.410003 4278256128
57.003597 1.1457894 11.410003 4278652164
57.431938 1.0390515 11.409995 4278520580
57.800518 1.0106326 11.410008 4279310349
58.205353 0.99865562 11.410005 4278586628
58.598087 1.0068294 11.410008 4278323201
58.935947 1.0058404 11.409999 4279574032
5.1706476 1.2258677 11.41 4279971861
5.323524 1.2915902 11.410001 4278919432
5.8181567 1.3924601 11.410001 4279050762
6.2314944 1.3182007 11.410002 4280433690
6.5065289 1.2258677 11.41 4280762906
11.564918 1.4099725 11.410002 4278190080
11.793195 1.4505178 11.409993 4279047945
12.250004 1.5250185 11.410003 4278851332
12.506207 1.5421573 11.410002 4279114761
17.335028 1.555909 11.41 4278192640
18.545179 1.5401928 11.41 4278389762
56.336285 1.4366503 11.410002 4278190080
56.526134 1.421666 11.410001 4278190080
57.033367 1.395925 11.409999 4278849543
57.39576 1.3987452 11.410007 4279441934
57.804367 1.3987457 11.410007 4279112970
58.197273 1.3987452 11.410006 4278586628
58.590183 1.3987447 11.410007 4278388482
58.935944 1.3987457 11.409996 4279705873
11.571451 1.8616616 11.410003 4278915591
11.81034 1.797601 11.410007 4280300566
12.197349 1.7960635 11.410008 4280432919
12.531292 1.791948 11.409995 4279840277
13.578843 1.9802479 11.41 4278190080
13.924601 1.9330992 11.41 4278190080
17.337271 1.7063363 11.410002 4278191104
45.419971 1.9802479 11.41 4279640086
56.300362 1.8248637 11.409999 4278190080
56.607002 1.8062111 11.410007 4278454019
57.009583 1.7937504 11.410007 4279310349
57.395767 1.7916543 11.410009 4278586115
57.804371 1.7916545 11.410009 4278718213
58.197273 1.7916555 11.410007 4278323456
58.590183 1.7916548 11.410009 4278388994
58.935944 1.7916536 11.409999 4279113225
11.520733 2.1588418 11.410003 4279442191
11.802908 2.2002773 11.410007 4281288479
12.195817 2.2002773 11.410009 4281553191
12.603697 2.2014003 11.410009 4280630555
12.869195 2.1555448 11.410003 4279443729
13.557888 2.0815303 11.41 4278190080
13.783984 2.0877805 11.410002 4278190080
14.270358 2.0745456 11.41 4278191361
45.404255 2.0116804 11.41 4279705879
56.301155 2.2224631 11.410002 4278190592
56.649101 2.2024801 11.409998 4278520323
56.991776 2.1906042 11.410006 4279113225
57.38797 2.1842346 11.410006 4278651908
57.804386 2.2002776 11.410009 4278256896
58.197277 2.2002769 11.410007 4278718213
58.590172 2.2002776 11.410009 4279507981
58.935951 2.2002733 11.409999 4278981382
1.4881666 2.7443829 11.410003 4280368667
1.7937771 2.7206116 11.409991 4279906582
2.0535905 2.7660606 11.41 4278786312
11.829848 2.5011299 11.409997 4281158432
12.198075 2.6088946 11.410009 4280434460
12.58894 2.5872324 11.410007 4279907861
12.855896 2.5853236 11.41 4279642389
56.304466 2.5748105 11.409992 4278915337
56.605621 2.5994649 11.410008 4278915591
57.00288 2.6088955 11.410007 4279375884
57.395767 2.6088939 11.410009 4278586115
57.804363 2.6088948 11.410009 4278586372
58.197266 2.6088948 11.410007 4278257152
58.590168 2.6088939 11.410009 4278784005
58.93594 2.6088977 11.409999 4279310346
1.1220671 3.0628417 11.410003 4279376911
1.4072965 3.0103533 11.410004 4279643155
1.7916546 3.001802 11.410007 4280169750
2.0816629 3.032347 11.409999 4280498708
11.462387 3.1432507 11.41 4279050761
12.210219 2.8459518 11.410003 4278788363
12.451764 2.8468871 11.409999 4278393351
56.647289 3.0104928 11.409989 4278586372
57.002876 3.0018015 11.410006 4279376398
57.395779 3.001802 11.410007 4278520835
57.804382 3.0018015 11.410007 4278455556
58.197273 3.0018017 11.410006 4279245069
58.590176 3.0018013 11.410007 4278850053
58.935944 3.0018017 11.409996 4278915334
0.5343526 3.5204408 11.41 4278190080
1.0928175 3.3783495 11.409991 4278652165
1.3973162 3.3839431 11.410006 4280036887
1.7903801 3.3764484 11.410007 4279840786
2.1121004 3.3849158 11.40999 4280631322
11.478105 3.3108909 11.410002 4280301079
56.364521 3.4527397 11.410003 4279112715
56.611073 3.3956494 11.410009 4278651909
57.002869 3.3947132 11.410007 4278257152
57.395763 3.3947139 11.410009 4278586628
57.804363 3.3947132 11.410009 4278323458
58.197277 3.3947136 11.410007 4278322689
58.590172 3.3947129 11.410009 4278520579
58.935944 3.3947127 11.409999 4278388994
-0.62865013 3.6147382 11.41 4278191104
0.34575757 3.8347657 11.41 4278190080
1.0435592 3.6273112 11.41 4278256641
1.3987466 3.6147382 11.410001 4280761898
1.7942721 3.6147382 11.410001 4278852617
2.0666873 3.6265256 11.41 4279049739
56.371571 3.7941654 11.410003 4278717703
56.609947 3.803339 11.410009 4278783239
57.002872 3.8033392 11.410007 4278652421
57.394634 3.8033392 11.410009 4278388738
57.804363 3.8033392 11.410009 4278190080
58.196957 3.8023245 11.410007 4278256641
58.590172 3.8033392 11.410009 4278190592
58.935944 3.8033371 11.409999 4278322689
56.262093 4.2365813 11.409995 4278519299
56.609943 4.1962399 11.410007 4278454274
57.002876 4.196238 11.410006 4278454275
57.395763 4.1962399 11.410007 4278256384
57.804367 4.1962399 11.410007 4278190080
58.197273 4.196239 11.410006 4278256385
58.580288 4.1915126 11.410006 4278256128
58.942108 4.195003 11.409993 4278585858
0.94297522 4.6127205 11.41 4278190080
55.956844 4.5612059 11.41 4278585092
56.234573 4.5969386 11.41 4278717190
56.609966 4.5891528 11.410009 4278585860
57.002872 4.5891514 11.410007 4278454276
57.395763 4.5891528 11.410009 4278256641
57.804363 4.5891523 11.410009 4278585860
58.197273 4.5891514 11.410007 4278980361
58.590168 4.5891528 11.410009 4278388482
58.935947 4.5891442 11.409999 4278783747
-0.34575757 5.0920658 11.41 4278190080
1.0033257 5.0027981 11.410003 4278190080
56.221783 4.9232087 11.410003 4278256640
56.623962 4.9929566 11.410007 4278322689
57.002872 4.9977651 11.410007 4278717446
57.395767 4.9977627 11.410009 4278651909
57.804375 4.9977598 11.410009 4278586116
58.197273 4.9977627 11.410007 4278190336
58.590172 4.9977598 11.410009 4278190848
58.935936 4.9977684 11.409999 4278718466
0.98488516 5.2649446 11.41 4278190080
1.6344904 5.5321212 11.41 4278191104
56.224895 5.5006886 11.41 4278190336
56.657784 5.3902655 11.409998 4278322433
57.000633 5.4065905 11.410007 4278783495
57.395763 5.4063849 11.410009 4278520067
57.804363 5.4063845 11.410009 4278388226
58.197266 5.4063864 11.410007 4278190592
58.590172 5.4063849 11.410009 4278454019
58.935947 5.4063892 11.409999 4278190848
1.6722094 5.8401594 11.41 4278190080
56.753754 5.8150158 11.410003 4278519813
57.005611 5.8043013 11.410004 4278322689
57.395763 5.7992897 11.410007 4278651654
57.804367 5.7992902 11.410007 4278256385
58.197273 5.7992902 11.410006 4278783239
58.587719 5.7972488 11.410007 4278519811
58.931362 5.7796474 11.409991 4278322688
56.719963 6.0311127 11.41 4278388483
56.997604 6.0203729 11.410002 4278256896
57.452259 6.1507459 11.409992 4278387714
57.813892 6.1944747 11.410007 4278519812
58.197266 6.1922007 11.410007 4279309581
58.518532 6.1479244 11.409989 4278388225
58.904522 6.0664735 11.41 4278190336
3.7299907 6.6532135 11.41 4278190080
57.521484 6.4436636 11.41 4278190080
57.853409 6.5065293 11.410003 4278387713
58.21299 6.4556384 11.410003 4279967251
58.41732 6.4750962 11.410001 4278387968
-0.23798898 6.9510736 11.409999 4278190080
0.18859504 6.9465837 11.41 4278190080
4.7201142 6.9465833 11.41 4278190080
4.9977684 6.9465837 11.41 4278190080
58.728497 7.1854706 11.41 4278387712
58.886185 7.0513592 11.410001 4278321920
58.71077 7.4227057 11.409995 4278453505
58.869884 7.4078059 11.410001 4278321920
58.70694 7.7934647 11.409992 4278717188
58.871269 7.7874002 11.409999 4278453505
24.28685 13.987465 11.41 4283115535
24.643085 13.987465 11.41 4282983438
22.903818 14.375133 11.41 4283577884
23.907564 14.380371 11.410001 4281671440
24.164055 14.353338 11.410003 4281078019
22.683792 14.479908 11.41 4284557576
22.914293 14.458954 11.410001 4284360969
23.498941 14.471525 11.41 4284888339
23.913231 14.570848 11.41 4284821003
24.164158 14.60022 11.409989 4284688902
24.544859 14.538845 11.410003 4283902729
25.105593 14.557741 11.409999 4282590217
25.271736 14.490385 11.41 4281147923
26.026115 14.490385 11.41 4279969570
39.416363 14.741845 11.41 4284310357
23.929245 15.007371 11.410003 4284170290
24.232933 15.014971 11.409994 4282919189
24.551451 15.064157 11.409996 4282920724
25.039127 15.003786 11.410003 4283120409
25.20887 15.009022 11.41 4282726943
39.347214 15.049884 11.41 4285691236
20.729736 15.590523 11.41 4281079306
20.839752 15.590523 11.41 4281145100
23.499388 15.41681 11.409997 4281671956
23.795073 15.427132 11.410005 4284633420
24.202074 15.377488 11.409992 4282064142
24.595934 15.357189 11.409999 4282984465
24.877075 15.483418 11.410003 4283250218
25.806087 15.449078 11.41 4282336065
39.322067 15.213333 11.41 4287137916
44.115524 15.559091 11.41 4279238656
53.403828 15.213333 11.41 4280099857
57.965473 15.555161 11.41 4279571976
58.64677 15.57795 11.41 4280822041
20.70953 15.65114 11.410002 4281801743
20.831894 15.653389 11.41 4282592030
22.348513 15.946758 11.41 4282129679
23.160517 15.97819 11.41 4282066200
23.490225 15.849586 11.409995 4282527267
23.752893 15.813924 11.410003 4283645492
24.23226 15.920928 11.410003 4282590484
24.601547 15.821032 11.409989 4283575576
24.96026 15.797214 11.410003 4282394653
25.215157 15.760259 11.41 4284832602
25.802597 15.866431 11.41 4281744432
39.154423 15.810551 11.41 4284701000
39.306351 15.873415 11.41 4285426531
44.120762 15.621956 11.41 4280490764
50.386307 15.999146 11.41 4282658849
50.41774 15.999146 11.41 4281671954
52.083664 15.999146 11.41 4280624143
54.483963 15.97057 11.410001 4282465350
57.144299 15.951998 11.41 4279636745
57.584351 15.967713 11.41 4279966480
57.858021 15.856524 11.409995 4280822044
58.215916 15.84346 11.409995 4281413666
58.595196 15.835394 11.410004 4280558357
58.932602 15.841991 11.40999 4281677343
21.908457 16.219173 11.41 4283707670
22.272881 16.189217 11.409994 4282721551
22.572874 16.235977 11.409996 4283576342
23.064011 16.198902 11.409991 4283181590
23.409885 16.20545 11.410003 4283974457
23.789198 16.208544 11.410007 4284176473
24.209316 16.218155 11.410001 4283648585
24.586939 16.20787 11.409999 4284108364
24.861145 16.071835 11.410002 4281869339
37.54089 16.313471 11.41 4283254327
39.157917 16.201712 11.41 4283319612
39.252216 16.159801 11.41 4283187775
52.067947 16.046295 11.41 4283452451
54.378235 16.344902 11.41 4282530888
54.662277 16.275639 11.409998 4282860342
55.014187 16.285698 11.409988 4282794026
55.397743 16.280184 11.409989 4283714869
55.775436 16.288937 11.409989 4283780151
56.2103 16.315722 11.409997 4282595368
56.61097 16.312462 11.409995 4282859562
57.009453 16.269367 11.409995 4281017622
57.387768 16.252323 11.409998 4281281565
57.802937 16.182489 11.410003 4281150751
58.196777 16.201727 11.410002 4281281310
58.590183 16.203447 11.410007 4280755480
58.935944 16.203447 11.409996 4280558099
23.15004 16.407768 11.41 4282788378
23.426313 16.560226 11.409995 4283650385
23.825598 16.558781 11.410002 4286876561
24.185308 16.586849 11.410007 4285362550
24.583536 16.577057 11.409998 4285427571
25.397463 16.651371 11.41 4287271321
25.69293 16.640368 11.410002 4283388753
37.483265 16.407768 11.41 4283320892
38.253361 16.722094 11.41 4282396709
39.075844 16.439201 11.41 4283517245
54.374306 16.505993 11.41 4281872697
54.615242 16.489325 11.409991 4283188534
54.988537 16.488533 11.409992 4283451441
55.365829 16.444277 11.410003 4283254312
55.829529 16.440105 11.410003 4284964409
56.206554 16.483736 11.409995 4283844916
56.59816 16.450994 11.410001 4283516209
56.929977 16.437777 11.410003 4282595878
57.33918 16.45492 11.410001 4283780656
57.763969 16.41675 11.409999 4282202912
58.270866 16.567995 11.409989 4281807139
58.596203 16.594997 11.410008 4283056947
58.93594 16.596354 11.409999 4283386165
-0.36147383 17.193581 11.41 4288585890
23.50935 16.900934 11.410003 4286283371
23.8113 17.033371 11.410004 4285231212
24.109823 16.997673 11.409988 4285231216
24.541801 16.823376 11.41 4281940282
25.397463 17.004988 11.410002 4286086787
25.696075 16.879257 11.410001 4281743930
37.278954 16.942122 11.41 4282925106
38.769753 17.076832 11.409999 4285226060
58.474941 16.826868 11.41 4283318575
-0.47648823 17.406471 11.410003 4288981161
-0.19805855 17.438963 11.409989 4289112747
0.17242971 17.455229 11.409995 4288783782
0.58586705 17.492632 11.409992 4288586403
0.95519894 17.555054 11.410002 4288454817
1.3893168 17.57077 11.41 4288915368
1.8230854 17.57077 11.41 4288323230
2.2491705 17.57077 11.41 4288521122
2.6001673 17.558546 11.410002 4288783780
3.0513711 17.558681 11.410002 4288849573
3.4205964 17.563374 11.410002 4288257947
3.7939038 17.57077 11.410001 4288389789
4.2040973 17.57077 11.41 4287995800
4.4162674 17.57077 11.41 4287996570
6.6719627 17.501287 11.410002 4282015792
7.0771494 17.52483 11.410002 4282213682
7.388885 17.541582 11.410003 4282147889
7.8266921 17.527914 11.410003 4282147633
8.2003155 17.531488 11.410003 4282476598
8.5923023 17.530363 11.410003 4281686317
8.9482021 17.511059 11.41 4281422889
9.4216385 17.541367 11.410003 4281488424
9.7368231 17.549009 11.410002 4282146865
10.089835 17.548319 11.409999 4282541620
23.830151 17.407276 11.410001 4284639327
24.18507 17.407633 11.410001 4285823609
24.687084 17.460764 11.410003 4285889142
24.999849 17.46352 11.40999 4284968807
25.40826 17.456446 11.409993 4285494129
25.680359 17.390032 11.41 4285954934
38.729881 17.44001 11.410003 4284831558
-0.55711406 17.804892 11.410003 4289178541
-0.11001377 17.602203 11.41 4289244333
0.21785975 17.629301 11.410003 4288915368
0.6358189 17.668365 11.409997 4288652197
1.009055 17.693283 11.409988 4288652196
1.3955226 17.694075 11.40999 4288849574
1.805124 17.687916 11.40999 4288849831
2.202215 17.68718 11.409989 4288718502
2.6099241 17.698898 11.409989 4288717987
3.0019922 17.696121 11.409989 4288783780
3.3907831 17.704025 11.409991 4288652451
3.8100131 17.724031 11.409997 4288521121
4.1949372 17.742067 11.409996 4288455070
4.5726786 17.774696 11.409989 4288718241
5.0171657 17.849983 11.40999 4289048228
5.390461 17.904467 11.409991 4289641130
5.8025389 17.910034 11.409994 4287537033
6.2064891 17.884727 11.409988 4283131711
6.6046782 17.815395 11.410006 4282935355
7.0252962 17.834358 11.410002 4282541365
7.4041972 17.793022 11.410007 4281949485
7.7914143 17.783869 11.410008 4281817900
8.2185297 17.77359 11.410007 4282805563
8.5957394 17.785786 11.410007 4282805565
8.9885473 17.785246 11.410008 4282344245
9.34867 17.752312 11.409995 4282343988
9.8268862 17.718462 11.409989 4282542135
10.183497 17.743332 11.409992 4282147376
10.575037 17.703352 11.409998 4282279217
11.039724 17.737982 11.41 4282410801
11.400852 17.799198 11.409988 4282542643
11.804193 17.837164 11.409995 4282936631
12.214903 17.824213 11.40999 4282673460
12.602568 17.8717 11.409993 4282475310
13.00899 17.881762 11.409989 4282869556
13.374227 17.861057 11.409993 4282671409
13.811969 17.935511 11.410001 4284838220
14.157959 17.944151 11.410003 4288256890
22.748156 17.965921 11.409999 4282467126
23.008598 17.963682 11.410003 4281086243
23.43951 17.911945 11.409998 4281481513
23.809305 17.803022 11.410007 4283390027
24.175716 17.797735 11.410006 4285232492
24.607719 17.864471 11.410003 4282009139
24.999474 17.770426 11.409992 4281680174
25.426931 17.632656 11.410003 4284047450
27.59774 17.947962 11.41 4282407731
27.707754 17.953199 11.41 4282144815
28.352121 17.927004 11.41 4282144046
28.509283 17.94796 11.41 4281815337
29.012203 17.979393 11.41 4281421094
29.504646 17.968916 11.41 4281683242
29.735151 17.979393 11.41 4282209328
32.207844 17.979393 11.41 4283258193
32.532646 17.979393 11.41 4281348400
37.128075 17.96682 11.41 4289309094
37.29895 17.842236 11.410003 4288651422
38.578163 17.602203 11.41 4284437572
-0.56388003 18.172752 11.410003 4289178541
4.7148762 18.07369 11.41 4290757054
5.0711112 18.054482 11.410002 4291152324
5.4024606 18.043827 11.410003 4290889408
5.7963257 18.043957 11.410003 4290429624
6.1953454 18.043827 11.410003 4288917404
6.5801721 18.041361 11.410003 4286548598
7.0603399 18.031786 11.410002 4283721542
7.4105878 18.024302 11.410002 4282406962
7.7284675 18.026546 11.410002 4282276914
8.292943 18.031782 11.41 4284056140
8.9834099 18.07369 11.41 4283200316
12.384408 18.07369 11.41 4281160991
12.600548 18.10619 11.409988 4281686566
13.001313 18.115829 11.409988 4282014762
13.38191 18.114431 11.409992 4282605103
13.778371 18.054554 11.410003 4286745702
14.203355 18.04143 11.410003 4288519806
14.61312 18.051235 11.410003 4289046149
14.993305 18.045321 11.410003 4287665008
15.415158 18.050528 11.410003 4287467369
15.834015 18.122829 11.409992 4287205477
16.191673 18.156755 11.409997 4287533933
16.580462 18.216434 11.409989 4286680162
17.008261 18.21973 11.409991 4285628248
17.407141 18.235794 11.409993 4285430611
17.79213 18.2897 11.40999 4286481246
18.198769 18.287169 11.409991 4289307783
18.608046 18.293726 11.409988 4289702802
18.966684 18.275162 11.409995 4291414191
19.374212 18.225945 11.410003 4291217068
19.815952 18.211397 11.410002 4291415216
20.19875 18.207283 11.410003 4290691493
20.600082 18.244608 11.410003 4289506963
21.005581 18.257956 11.410003 4288849032
21.370798 18.24078 11.410002 4289441425
21.798445 18.230852 11.410001 4288651395
22.216793 18.259295 11.410002 4288060030
22.648727 18.145531 11.410001 4285296724
23.007717 18.082853 11.409992 4283324735
23.405958 18.083538 11.409993 4282274867
23.81942 18.115261 11.409989 4281879089
24.185801 18.13051 11.409994 4281681197
24.607725 18.18808 11.410006 4281681963
24.986784 18.2017 11.410009 4281944877
25.396982 18.249308 11.410001 4283718978
25.810301 18.322338 11.409993 4282997048
26.199739 18.31916 11.409994 4281945386
26.5919 18.325146 11.409994 4282077228
27.00827 18.317404 11.409992 4281749034
27.430868 18.229475 11.410004 4281880877
27.801853 18.201244 11.410007 4281815594
28.189631 18.194088 11.410008 4281486885
28.602077 18.195814 11.410009 4281223713
28.974863 18.170937 11.410002 4281026335
29.393095 18.128548 11.409996 4281288739
29.78813 18.157812 11.409995 4282144302
30.216646 18.169891 11.409993 4282078764
30.600391 18.152264 11.409991 4281750056
30.985058 18.159851 11.409989 4282408239
31.396843 18.166584 11.409988 4282802739
31.832893 18.22106 11.409995 4282407216
32.208111 18.154116 11.409997 4284313427
32.598564 18.153172 11.410001 4285035617
33.013145 18.213968 11.409996 4284970588
33.395607 18.259436 11.409996 4283984719
33.785908 18.270649 11.409996 4285628523
34.151196 18.297356 11.409992 4286811265
34.544315 18.357952 11.410003 4286877316
37.118008 18.171764 11.410003 4284308826
37.273243 18.182274 11.410001 4287203977
-0.60170794 18.600557 11.410002 4288980905
17.461971 18.487141 11.410003 4283984192
17.796585 18.498024 11.409991 4287467631
18.201412 18.480312 11.409994 4288190074
18.605045 18.481806 11.409994 4288452738
18.855576 18.446953 11.41 4290887589
24.606188 18.444044 11.410003 4282472498
24.988838 18.43516 11.410003 4282011694
25.397463 18.43516 11.410003 4284114755
25.786631 18.431419 11.410002 4282997816
26.169306 18.419449 11.41 4282275376
26.634022 18.475389 11.41 4282340654
27.00172 18.502607 11.40999 4282209327
27.409143 18.482311 11.409994 4282670390
27.799309 18.486795 11.409994 4283064378
28.190739 18.48794 11.409993 4282275119
28.599106 18.500679 11.40999 4282603569
28.910261 18.500996 11.410003 4282340141
29.224373 18.568752 11.41 4281879079
29.801159 18.582899 11.410001 4281946409
30.311415 18.59495 11.410001 4282473520
30.426666 18.592327 11.41 4281552674
33.192726 18.419449 11.41 4283131711
33.370846 18.419449 11.41 4281487142
34.677914 18.427307 11.41 4290561202
34.986996 18.424688 11.410001 4287928467
35.501274 18.556814 11.410003 4287732369
35.764481 18.506598 11.410003 4285757043
36.244015 18.612696 11.410003 4282732863
36.592106 18.677891 11.410003 4283917900
37.071865 18.569214 11.410002 4283125320
37.216087 18.513746 11.41 4282598209
38.345036 18.676149 11.410001 4289046695
38.549721 18.681009 11.410003 4289706171
39.982147 18.592327 11.41 4282931828
40.01358 18.592327 11.41 4282931830
-0.60036087 18.975803 11.410001 4289902263
36.295563 18.832563 11.409999 4282077484
36.569477 18.828074 11.409999 4282800180
38.410522 18.828072 11.41 4288718504
-0.61150509 19.425291 11.410001 4289375150
-0.58674008 19.810862 11.410002 4290889415
-0.57835811 20.05394 11.41 4289244076
-0.55680436 20.691568 11.409999 4290296765
-0.50006258 21.068354 11.410001 4291612113
-0.54006761 21.376961 11.410001 4292862949
-0.51956081 21.817856 11.410002 4292862948
-0.51549315 22.23221 11.410002 4292599519
-0.36147383 22.128485 11.41 4292665569
-0.51456183 22.617435 11.410003 4292401627
-0.54914433 22.96607 11.410002 4291875283
-0.51863635 23.32292 11.41 4291743695
-0.60245639 24.700712 11.41 4291744465
-0.62865013 24.800247 11.41 4291876051
-0.58150136 25.570343 11.41 4292533211
-0.60350412 26.170704 11.41 4292072660
-0.56578511 26.969091 11.41 4292402395
-0.59721762 27.377712 11.41 4291941074
-0.55321211 27.654322 11.41 4292335832
-0.58374655 28.136585 11.409999 4291019201
-0.57757223 28.619295 11.410002 4291018688
0.29860881 28.572149 11.41 4292072660
-0.57102382 28.98863 11.410001 4292730592
-0.56578505 29.408739 11.410002 4292335834
-0.56864256 29.823732 11.410001 4291283145
-0.56229264 30.185682 11.41 4290427580
-0.57835811 30.520966 11.41 4290690751
-0.57364327 30.968876 11.41 4292730331
-0.34575757 30.992451 11.41 4292467416
-0.5393157 31.455664 11.410002 4292665307
-0.3614738 31.472918 11.410002 4292599515
-0.55792695 31.715397 11.41 4292072655
-0.36933196 31.644676 11.41 4292599000
-0.484997 -0.90398854 11.979998 4279379217
-0.22001837 -0.90398854 11.979995 4278852618
0.15382639 -0.90058392 11.979997 4278391812
0.45603803 -0.90307528 11.979999 4278391813
6.7985673 -0.85807163 11.98 4283461193
6.9178843 -0.84283954 11.979998 4280236568
7.5246282 -0.88579386 11.979999 4280104213
7.805151 -0.90757573 11.979994 4281882153
8.2011833 -0.90757573 11.979994 4279842065
8.5972176 -0.90757591 11.979994 4279841044
8.9670095 -0.91217464 11.979997 4279117067
9.4470377 -0.9172017 11.98 4280762403
9.8018179 -0.90757525 11.979993 4279708950
10.214352 -0.90757561 11.979994 4279180817
10.610386 -0.90757549 11.979994 4278257923
10.980917 -0.92227685 11.979999 4278191874
11.405009 -0.9078083 11.979994 4278390023
11.798483 -0.90757602 11.979994 4278191104
12.182139 -0.90345025 11.979996 4278190080
12.547648 -0.8903411 11.980002 4278389764
13.051321 -0.84030068 11.979998 4278784776
13.42612 -0.84157008 11.979997 4278981387
13.836404 -0.84157002 11.979998 4278191362
14.217901 -0.84864217 11.979998 4278190080
14.646023 -0.9000752 11.979999 4278191104
14.995687 -0.9078148 11.979995 4278323459
